-187.559113 8.972000 -11.789825 0.903516 -0.319290 0.285855 
-184.159958 15.196274 -11.789825 0.843082 -0.460418 0.277898 
-180.463409 17.274551 -20.092377 0.708432 -0.369384 0.601398 
-175.857422 17.274551 -26.384521 0.771218 -0.294124 0.564548 
-182.800964 17.274551 -11.789825 0.814636 -0.532694 0.229358 
-184.159958 -10.747742 -3.487274 0.559381 0.046532 -0.827603 
-184.184814 -7.633072 -3.487274 0.708100 0.005651 -0.706089 
-184.159958 -7.275665 -3.487274 0.708832 -0.049297 -0.703653 
-184.159958 0.669464 -3.963531 0.776810 -0.037681 -0.628607 
-184.159958 -7.633072 -3.479065 0.313603 0.002503 -0.949551 
-175.857422 0.669464 -1.411774 0.204527 0.056001 -0.977258 
-167.554871 0.669464 0.325836 0.204527 0.056001 -0.977258 
-182.998566 0.669464 -3.487274 0.378830 -0.055376 -0.923808 
-184.159958 8.972000 -5.588470 0.873052 -0.093659 -0.478547 
-180.153473 8.972000 -3.487274 0.458678 -0.157179 -0.874591 
-175.857422 15.162857 -3.487274 0.634089 -0.440016 -0.635859 
-175.857422 17.274551 -4.179596 0.721323 -0.215769 -0.658132 
-173.872986 17.274551 -3.487274 0.314673 -0.295710 -0.901963 
-175.857422 8.972000 -2.160736 0.293946 -0.085875 -0.951957 
-167.554871 8.972000 -0.222870 0.204421 -0.064553 -0.976752 
-167.554871 17.274551 -1.874115 0.242917 -0.189221 -0.951413 
-159.252319 -40.843246 -43.336670 0.707540 0.306302 0.636841 
-159.252319 -32.540710 -44.541962 0.524227 0.122343 0.842744 
-159.252319 -24.238174 -44.232239 0.459326 -0.033113 0.887650 
-159.252319 -15.935623 -43.160431 0.417493 -0.065507 0.906316 
-159.252319 -47.186752 -3.487274 0.379530 0.223698 -0.897729 
-166.078262 -40.843246 -3.487274 0.334492 0.359931 -0.870956 
-159.252319 -40.843246 -2.133606 0.190398 0.204878 -0.960091 
-150.949783 -40.843246 -0.825195 0.152323 0.206260 -0.966568 
-159.252319 -32.540710 -1.104706 0.133296 0.173697 -0.975736 
-150.949783 -32.540710 -0.218842 0.105817 0.072429 -0.991744 
-134.344696 -32.540710 0.216431 0.058314 0.008612 -0.998261 
-150.949783 -15.935623 0.849060 0.105880 0.063818 -0.992329 
-134.344696 -15.935623 0.820557 -0.001715 0.036358 -0.999337 
-159.252319 -7.633072 -42.006622 0.405538 -0.113787 0.906968 
-159.252319 0.669464 -40.790802 0.407978 -0.136532 0.902725 
-150.949783 0.669464 -43.959625 0.352322 -0.154072 0.923109 
-159.252319 8.972000 -39.591705 0.409065 -0.130436 0.903135 
-165.702087 8.972000 -36.697449 0.406172 -0.125462 0.905143 
-150.949783 8.972000 -42.655426 0.343057 -0.134268 0.929669 
-159.252319 17.274551 -37.962372 0.402999 -0.176242 0.898071 
-162.069916 17.274551 -36.697449 0.403138 -0.176364 0.897984 
-150.949783 17.274551 -41.208191 0.358174 -0.179796 0.916180 
-142.647247 17.274551 -44.005951 0.315702 -0.150377 0.936867 
-159.252319 0.669464 1.605835 0.056151 0.073455 -0.995717 
-150.949783 0.669464 2.074036 0.056151 0.073455 -0.995717 
-134.344696 0.669464 1.622131 -0.001715 0.048217 -0.998835 
-159.252319 8.972000 1.264496 0.152244 -0.040599 -0.987509 
-150.949783 8.972000 1.848602 0.056282 -0.027099 -0.998047 
-159.252319 17.274551 -0.449768 0.172806 -0.199167 -0.964609 
-150.949783 17.274551 0.390289 0.069126 -0.172584 -0.982566 
-134.344696 17.274551 0.507904 -0.047031 -0.066877 -0.996652 
-101.134521 -132.713974 -36.697449 0.796713 0.602043 0.052850 
-101.134521 -132.171234 -42.880066 0.796713 0.602043 0.052850 
-101.544647 -132.171234 -36.697449 0.796713 0.602043 0.052850 
-101.134521 -132.695740 -28.394897 0.797827 0.602885 -0.001324 
-101.541885 -132.171234 -28.394897 0.789779 0.613392 -0.000263 
-108.026855 -123.868690 -36.697449 0.787140 0.614560 0.052215 
-114.254959 -115.566147 -36.697449 0.796468 0.601378 0.063112 
-109.437073 -121.946983 -36.697449 0.796468 0.601378 0.063112 
-108.211639 -123.868690 -28.394897 0.779480 0.626187 0.017348 
-109.437073 -122.266151 -28.394897 0.797845 0.602417 0.023158 
-114.749374 -115.566147 -28.394897 0.782731 0.620612 0.046611 
-101.134521 -132.171234 -22.036255 0.788770 0.612608 -0.050532 
-107.775467 -123.868690 -20.092377 0.758428 0.637920 -0.133589 
-101.134521 -131.764160 -20.092377 0.758428 0.637920 -0.133589 
-109.437073 -121.873726 -20.092377 0.783245 0.621020 -0.029353 
-114.958771 -115.566147 -20.092377 0.752290 0.658559 0.018973 
-101.134521 -127.950073 -11.789825 0.733874 0.617268 -0.283565 
-104.789963 -123.868690 -11.789825 0.719542 0.644449 -0.258739 
-109.437073 -118.943207 -11.789825 0.732879 0.641567 -0.226451 
-112.839783 -115.566147 -11.789825 0.693311 0.698577 -0.176948 
-101.134521 -123.868690 -7.366577 0.634345 0.568143 -0.524233 
-109.437073 -115.566147 -7.058624 0.628383 0.633156 -0.451937 
-104.385269 -115.566147 -3.487274 0.443516 0.516046 -0.732796 
-101.134521 -118.360001 -3.487274 0.443516 0.516046 -0.732796 
-101.134521 -115.566147 -2.249756 0.328726 0.382485 -0.863507 
-73.025558 -165.381409 -36.697449 0.636929 0.768115 0.065739 
-67.924347 -169.611389 -36.697449 0.636929 0.768115 0.065739 
-72.156128 -165.381409 -28.394897 0.612980 0.785224 -0.087622 
-67.924347 -168.684921 -28.394897 0.612980 0.785224 -0.087622 
-88.617599 -148.776321 -36.697449 0.758802 0.644983 0.090643 
-84.529434 -153.585922 -36.697449 0.758802 0.644983 0.090643 
-84.529434 -153.236389 -28.394897 0.761656 0.647408 -0.027256 
-88.363083 -148.776321 -28.394897 0.758149 0.651667 -0.023241 
-76.226898 -162.393799 -36.697449 0.725460 0.684843 0.068534 
-81.373535 -157.078857 -36.697449 0.716156 0.693478 0.078805 
-76.226898 -161.792343 -28.394897 0.717479 0.694759 -0.050330 
-80.944046 -157.078857 -28.394897 0.706360 0.706909 -0.036540 
-67.924347 -168.353363 -20.092377 0.615043 0.787866 -0.031463 
-72.166412 -165.381409 -20.092377 0.573787 0.819004 0.000711 
-71.014526 -165.381409 -11.789825 0.487956 0.863508 -0.127483 
-67.924347 -167.127625 -11.789825 0.487956 0.863508 -0.127483 
-87.984955 -148.776321 -20.092377 0.783817 0.620949 -0.007345 
-84.529434 -153.138184 -20.092377 0.783817 0.620949 -0.007345 
-84.529434 -151.419220 -11.789825 0.777439 0.615897 -0.127515 
-86.286362 -148.776321 -11.789825 0.820948 0.545744 -0.167955 
-81.116058 -157.078857 -20.092377 0.712895 0.700929 0.021878 
-76.226898 -162.051483 -20.092377 0.712895 0.700929 0.021878 
-80.289520 -157.078857 -11.789825 0.732500 0.679053 -0.048275 
-76.226898 -161.461243 -11.789825 0.732500 0.679053 -0.048275 
-67.924347 -165.381409 -7.197784 0.467040 0.826495 -0.314291 
-84.529434 -148.776321 -7.404083 0.789976 0.525155 -0.316464 
-76.226898 -157.347122 -3.487274 0.694979 0.644269 -0.319251 
-76.488312 -157.078857 -3.487274 0.680542 0.663161 -0.311577 
-67.924347 -163.189758 -3.487274 0.566712 0.709409 -0.419019 
-82.479065 -148.776321 -3.487274 0.760229 0.548549 -0.348060 
-76.226898 -157.078857 -3.124054 0.636600 0.620341 -0.458168 
-67.947235 -157.078857 4.815247 0.408114 0.735782 -0.540433 
-67.924347 -157.091553 4.815247 0.408114 0.735782 -0.540433 
-76.226898 -149.405273 4.815247 0.705409 0.509654 -0.492596 
-76.673508 -148.776321 4.815247 0.708316 0.502965 -0.495292 
-67.924347 -157.078857 4.831207 0.398193 0.717896 -0.571023 
-76.226898 -148.776321 5.303558 0.653621 0.464127 -0.597801 
-67.924347 -149.842316 13.117798 0.416923 0.684630 -0.597876 
-68.962524 -148.776321 13.117798 0.592496 0.577035 -0.562121 
-67.924347 -148.776321 14.253510 0.599318 0.583678 -0.547849 
-95.087280 -140.473785 -36.697449 0.792718 0.602704 0.091362 
-92.831970 -143.440125 -36.697449 0.792718 0.602704 0.091362 
-92.831970 -143.223816 -28.394897 0.795948 0.605160 -0.015766 
-94.951569 -140.473785 -28.394897 0.791974 0.610418 -0.012945 
-92.831970 -142.341049 -20.092377 0.790377 0.609187 -0.064772 
-94.222000 -140.473785 -20.092377 0.800158 0.595654 -0.070312 
-100.808167 -132.171234 -20.092377 0.776744 0.616168 -0.130406 
-92.831970 -140.473785 -14.509338 0.786609 0.585568 -0.195845 
-91.739594 -140.473785 -11.789825 0.792366 0.520438 -0.318278 
-97.720627 -132.171234 -11.789825 0.759921 0.557132 -0.334849 
-92.831970 -138.839294 -11.789825 0.759921 0.557132 -0.334849 
-86.870209 -140.473785 -3.487274 0.816051 0.418258 -0.398899 
-84.529434 -145.040802 -3.487274 0.816051 0.418258 -0.398899 
-92.831970 -132.171234 -5.409851 0.686052 0.502976 -0.525688 
-90.947205 -132.171234 -3.487274 0.673865 0.330904 -0.660612 
-84.529434 -140.473785 -0.237274 0.749229 0.384009 -0.539623 
-84.529434 -132.171234 2.933044 0.668102 0.328074 -0.667837 
-80.730865 -140.473785 4.815247 0.760776 0.371783 -0.531975 
-82.745071 -132.171234 4.815247 0.714724 0.173393 -0.677572 
-92.831970 -128.724869 -3.487274 0.751676 0.321310 -0.575972 
-96.106613 -123.868690 -3.487274 0.564823 0.380874 -0.732059 
-92.831970 -123.868690 -1.659454 0.463023 0.312228 -0.829532 
-84.529434 -123.868690 3.392487 0.494861 0.306108 -0.813272 
-92.831970 -115.566147 -0.408264 0.198749 0.396912 -0.896080 
-84.529434 -115.566147 1.864655 0.513507 -0.155297 -0.843915 
-82.596176 -123.868690 4.815247 0.592694 -0.010629 -0.805358 
-79.214111 -115.566147 4.815247 0.476129 -0.193953 -0.857720 
-76.226898 -140.473785 10.629517 0.735812 0.365640 -0.569990 
-74.156250 -140.473785 13.117798 0.692740 0.433350 -0.576471 
-76.226898 -132.171234 12.685242 0.760721 0.156002 -0.630053 
-75.891357 -132.171234 13.117798 0.779584 0.162921 -0.604736 
-67.924347 -141.706940 21.420349 0.732647 0.484546 -0.477957 
-68.498322 -140.473785 21.420349 0.771277 0.358993 -0.525601 
-70.316269 -132.171234 21.420349 0.813158 0.178051 -0.554141 
-76.226898 -123.868690 10.939423 0.693048 -0.012429 -0.720785 
-74.382858 -123.868690 13.117798 0.782122 -0.142105 -0.606705 
-76.226898 -115.566147 7.164246 0.582067 -0.336576 -0.740213 
-70.704773 -115.566147 13.117798 0.723035 -0.320310 -0.612064 
-68.927505 -123.868690 21.420349 0.827685 -0.138447 -0.543847 
-67.924347 -121.005440 21.420349 0.802058 -0.281006 -0.527008 
-67.924347 -115.566147 17.189941 0.775576 -0.343586 -0.529557 
-67.924347 -140.473785 22.431244 0.806077 0.375190 -0.457681 
-67.924347 -132.171234 25.704590 0.857443 0.188738 -0.478717 
-67.924347 -123.868690 23.310699 0.873840 -0.146167 -0.463723 
-26.411621 -182.514496 -36.697449 0.069406 0.995527 0.064096 
-26.411621 -181.986496 -44.898193 0.069406 0.995527 0.064096 
-33.985016 -181.986496 -36.697449 0.069406 0.995527 0.064096 
-18.109085 -182.409180 -36.697449 -0.012663 0.998277 0.057296 
-18.109085 -181.986496 -44.061951 -0.012663 0.998277 0.057296 
-26.411621 -181.986496 -33.666229 0.068522 0.982851 -0.171200 
-18.109085 -181.986496 -34.160828 -0.010222 0.985115 -0.171594 
-12.927032 -181.986496 -36.697449 -0.081164 0.995063 0.057111 
-59.621796 -174.677704 -36.697449 0.443309 0.893983 0.065360 
-61.606583 -173.683960 -36.697449 0.446758 0.892302 0.064835 
-51.319260 -178.252747 -36.697449 0.394719 0.916680 0.062398 
-59.789627 -173.683960 -28.394897 0.415034 0.904310 -0.099848 
-59.621796 -173.760986 -28.394897 0.415034 0.904310 -0.099848 
-51.319260 -177.043549 -28.394897 0.391998 0.910361 -0.132587 
-43.016724 -180.565399 -36.697449 0.267902 0.961782 0.056606 
-34.714172 -181.906464 -36.697449 0.159232 0.985811 0.053121 
-43.016724 -179.194290 -28.394897 0.265000 0.951363 -0.157111 
-34.714172 -180.308167 -28.394897 0.156654 0.969846 -0.186702 
-59.621796 -173.683960 -27.476685 0.415911 0.906222 -0.076020 
-57.532089 -173.683960 -20.092377 0.277653 0.944700 -0.174500 
-51.319260 -175.509949 -20.092377 0.277653 0.944700 -0.174500 
-59.621796 -172.902649 -20.092377 0.478475 0.873227 -0.092393 
-51.319260 -173.683960 -14.644470 0.268441 0.913358 -0.306132 
-59.621796 -170.556732 -11.789825 0.466424 0.851234 -0.240519 
-51.319260 -172.125824 -11.789825 0.163651 0.865925 -0.472643 
-43.016724 -177.029327 -20.092377 0.243142 0.938605 -0.244750 
-34.714172 -177.514648 -20.092377 0.126140 0.940218 -0.316352 
-43.016724 -173.683960 -13.382355 0.067672 0.892890 -0.445161 
-34.714172 -173.683960 -13.683838 -0.016200 0.894824 -0.446126 
-43.016724 -172.462494 -11.789825 0.032159 0.793069 -0.608282 
-34.714172 -171.999512 -11.789825 -0.041633 0.746589 -0.663982 
-59.621796 -165.381409 -3.565857 0.226912 0.824283 -0.518719 
-51.319260 -165.426147 -3.487274 0.145511 0.769944 -0.621300 
-59.036560 -165.381409 -3.487274 0.004919 0.848464 -0.529230 
-55.470535 -165.381409 -3.247284 0.005776 0.996294 -0.085822 
-51.319260 -165.381409 -3.428436 -0.026403 0.795741 -0.605061 
-50.739014 -165.381409 -3.487274 -0.076315 0.776518 -0.625456 
-43.016724 -165.381409 -4.429504 -0.076315 0.776518 -0.625456 
-34.714172 -165.381409 -5.519745 -0.090666 0.717676 -0.690449 
-59.621796 -165.326660 -3.487274 0.206623 0.802797 -0.559307 
-59.621796 -160.435638 4.815247 0.336232 0.834783 -0.435989 
-59.621796 -161.230133 3.294037 0.336232 0.834783 -0.435989 
-59.621796 -162.675247 0.664001 0.329201 0.827562 -0.454717 
-55.470535 -162.978897 0.664001 0.035202 0.851561 -0.523072 
-51.319260 -162.992798 0.664001 -0.021992 0.863446 -0.503963 
-55.470535 -161.230133 4.810944 0.140575 0.912272 -0.384705 
-51.319260 -161.541626 4.815247 0.003161 0.943979 -0.329991 
-55.457504 -161.230133 4.815247 0.069196 0.919280 -0.387475 
-55.470535 -161.228607 4.815247 0.177186 0.927583 -0.328929 
-47.167984 -165.061981 -3.487274 -0.080001 0.782342 -0.617689 
-43.016724 -164.637482 -3.487274 -0.080001 0.782342 -0.617689 
-38.865448 -164.203217 -3.487274 -0.081540 0.780950 -0.619249 
-34.714172 -163.769775 -3.487274 -0.081540 0.780950 -0.619249 
-47.167984 -162.786102 0.664001 -0.078195 0.874183 -0.479259 
-43.016724 -162.492798 0.664001 -0.062649 0.886693 -0.458094 
-47.167984 -161.553131 4.815247 0.002657 0.958608 -0.284718 
-43.016724 -161.382645 4.815247 -0.039643 0.965293 -0.258145 
-38.865448 -162.169830 0.664001 -0.069698 0.895870 -0.438817 
-34.714172 -161.827591 0.664001 -0.074466 0.903256 -0.422591 
-40.392212 -161.230133 4.815247 -0.081693 0.965174 -0.248527 
-38.865448 -161.230133 4.313385 -0.081693 0.965174 -0.248527 
-34.714172 -161.230133 2.892365 -0.085049 0.964902 -0.248457 
-38.865448 -161.129776 4.815247 -0.064322 0.978556 -0.195681 
-34.714172 -160.821518 4.815247 -0.070973 0.975692 -0.207336 
-59.621796 -157.078857 11.677002 0.330044 0.854897 -0.400276 
-59.621796 -158.347946 8.966522 0.330044 0.854897 -0.400276 
-51.319260 -161.230133 5.989166 0.072562 0.964004 -0.255793 
-55.470535 -159.812927 8.966522 0.177911 0.931378 -0.317621 
-51.319260 -160.538284 8.966522 0.167784 0.960240 -0.223131 
-55.470535 -158.475220 13.117798 0.392394 0.875466 -0.282110 
-58.414886 -157.078857 13.117798 0.403310 0.850415 -0.337840 
-51.319260 -159.680710 13.117798 0.168666 0.965291 -0.199411 
-59.621796 -156.412109 13.117798 0.583305 0.737149 -0.341126 
-55.832825 -157.078857 17.269073 0.472685 0.846889 -0.243615 
-55.470535 -157.281067 17.269073 0.472685 0.846889 -0.243615 
-51.319260 -158.887466 17.269073 0.274290 0.944557 -0.180490 
-55.470535 -157.078857 18.029968 0.474754 0.850595 -0.226047 
-53.922058 -157.078857 21.420349 0.368437 0.914457 -0.167401 
-51.319260 -158.127533 21.420349 0.368437 0.914457 -0.167401 
-63.165894 -148.776321 21.420349 0.726294 0.640843 -0.248631 
-59.621796 -152.792999 21.420349 0.726294 0.640843 -0.248631 
-59.621796 -152.927597 21.073425 0.726294 0.640843 -0.248631 
-59.621796 -154.502747 17.269073 0.722419 0.638861 -0.264513 
-55.470535 -156.175217 21.420349 0.543118 0.811333 -0.216245 
-59.484787 -152.927597 21.420349 0.610414 0.754508 -0.241067 
-47.167984 -161.230133 6.342590 0.017612 0.978210 -0.206869 
-43.016724 -161.230133 5.585114 -0.037726 0.977665 -0.206754 
-47.167984 -160.760910 8.966522 0.052717 0.983016 -0.175787 
-43.016724 -160.662125 8.966522 -0.030214 0.985733 -0.165583 
-47.167984 -160.114685 13.117798 0.052916 0.986715 -0.153601 
-43.016724 -160.092148 13.117798 -0.005378 0.990691 -0.136023 
-38.865448 -160.424835 8.966522 -0.064668 0.983823 -0.167066 
-34.714172 -160.113586 8.966522 -0.073709 0.983087 -0.167649 
-38.865448 -159.868469 13.117798 -0.053328 0.989728 -0.132646 
-34.714172 -159.542084 13.117798 -0.077653 0.987665 -0.135971 
-47.167984 -159.512634 17.269073 0.102909 0.984392 -0.142764 
-43.016724 -159.582397 17.269073 -0.005388 0.992531 -0.121876 
-47.167984 -158.934174 21.420349 0.147523 0.979594 -0.136502 
-43.016724 -159.087585 21.420349 0.016685 0.992833 -0.118341 
-38.865448 -159.385895 17.269073 -0.046967 0.992215 -0.115342 
-34.714172 -159.037872 17.269073 -0.082937 0.989284 -0.120158 
-38.865448 -158.905334 21.420349 -0.043570 0.992423 -0.114885 
-34.714172 -158.526215 21.420349 -0.090270 0.988438 -0.121828 
-65.509872 -115.566147 21.420349 0.810364 -0.359716 -0.462509 
-26.411621 -180.680038 -28.394897 0.043434 0.969717 -0.240337 
-18.109085 -180.408478 -28.394897 -0.015723 0.964411 -0.263940 
-9.806549 -181.609283 -36.697449 -0.119430 0.987982 0.098123 
-1.503998 -180.348648 -36.697449 -0.168201 0.978809 0.116793 
-9.806549 -179.472549 -28.394897 -0.116274 0.961874 -0.247547 
-1.503998 -178.186859 -28.394897 -0.148203 0.957047 -0.249193 
-26.411621 -177.157806 -20.092377 0.041198 0.919802 -0.390214 
-18.109085 -176.224854 -20.092377 -0.099848 0.888568 -0.447748 
-26.411621 -173.683960 -14.794189 -0.068456 0.856331 -0.511870 
-18.109085 -173.683960 -16.390808 -0.104862 0.831661 -0.545293 
-26.411621 -170.934845 -11.789825 -0.089916 0.734763 -0.672338 
-18.109085 -169.510712 -11.789825 -0.128133 0.734592 -0.666300 
-9.806549 -174.966797 -20.092377 -0.132013 0.871220 -0.472809 
-1.503998 -173.770477 -20.092377 -0.126196 0.875808 -0.465871 
-9.806549 -173.683960 -18.220154 -0.123737 0.818115 -0.561584 
-1.503998 -173.683960 -19.962646 -0.117803 0.819185 -0.561301 
-9.806549 -167.988678 -11.789825 -0.144554 0.740734 -0.656062 
-1.503998 -166.724548 -11.789825 -0.134824 0.754412 -0.642405 
-26.411621 -165.381409 -6.715454 -0.103981 0.684034 -0.722001 
-18.109085 -165.381409 -8.051575 -0.118463 0.666406 -0.736118 
-9.806549 -165.381409 -9.275024 -0.105470 0.690356 -0.715740 
-1.503998 -165.381409 -10.320862 -0.084695 0.735355 -0.672368 
-30.562897 -163.337158 -3.487274 -0.087638 0.786807 -0.610945 
-26.411621 -162.874771 -3.487274 -0.087638 0.786807 -0.610945 
-22.260361 -162.377991 -3.487274 -0.089959 0.792449 -0.603268 
-18.109085 -161.906738 -3.487274 -0.089959 0.792449 -0.603268 
-30.562897 -161.482758 0.664001 -0.075626 0.910429 -0.406694 
-27.671173 -161.230133 0.664001 -0.125278 0.908771 -0.398045 
-26.411621 -161.230133 0.267578 -0.125278 0.908771 -0.398045 
-26.411621 -161.110901 0.664001 -0.090281 0.953713 -0.286848 
-30.562897 -161.230133 1.559631 -0.082854 0.962565 -0.258078 
-30.562897 -160.490601 4.815247 -0.070936 0.972701 -0.220955 
-26.411621 -160.125107 4.815247 -0.091713 0.968843 -0.230071 
-22.260361 -161.230133 -1.036163 -0.125014 0.908802 -0.398058 
-18.109085 -161.230133 -2.094879 -0.107533 0.900364 -0.421641 
-22.260361 -160.668549 0.664001 -0.098028 0.944967 -0.312134 
-18.109085 -160.260376 0.664001 -0.084272 0.940059 -0.330434 
-22.260361 -159.680481 4.815247 -0.103634 0.967585 -0.230302 
-18.109085 -159.274902 4.815247 -0.094631 0.968594 -0.229937 
-13.957809 -161.569336 -3.487274 -0.033154 0.823582 -0.566228 
-9.806549 -161.402222 -3.487274 -0.033154 0.823582 -0.566228 
-5.655273 -161.335770 -3.487274 -0.012165 0.857186 -0.514864 
-1.503998 -161.276855 -3.487274 -0.012165 0.857186 -0.514863 
-13.957809 -161.230133 -2.759155 -0.069767 0.897241 -0.435995 
-9.806549 -161.230133 -3.079102 -0.032529 0.905983 -0.422063 
-13.957809 -160.068115 0.664001 -0.051368 0.945679 -0.321018 
-9.806549 -160.111115 0.664001 -0.022070 0.957868 -0.286359 
-13.957809 -159.155212 4.815247 -0.028148 0.976276 -0.214693 
-9.806549 -159.345795 4.815247 0.010186 0.983376 -0.181294 
-5.655273 -161.230133 -3.198975 -0.011217 0.921394 -0.388467 
-1.503998 -161.230133 -3.341309 -0.011795 0.938888 -0.344020 
-5.655273 -160.260178 0.664001 -0.007032 0.969869 -0.243525 
-1.503998 -160.363953 0.664001 -0.007247 0.977380 -0.211366 
-5.655273 -159.640289 4.815247 0.035492 0.988411 -0.147595 
-1.503998 -159.843582 4.815247 0.024797 0.991930 -0.124341 
-30.562897 -159.787292 8.966522 -0.077265 0.983003 -0.166540 
-26.411621 -159.442139 8.966522 -0.081766 0.983431 -0.161794 
-30.562897 -159.213531 13.117798 -0.078160 0.987553 -0.136493 
-26.411621 -158.887817 13.117798 -0.077537 0.988218 -0.131957 
-22.260361 -159.002914 8.966522 -0.103859 0.981603 -0.160216 
-18.109085 -158.584915 8.966522 -0.098843 0.981636 -0.163159 
-22.260361 -158.463943 13.117798 -0.100742 0.986632 -0.128097 
-18.109085 -158.051025 13.117798 -0.098179 0.987039 -0.126942 
-30.562897 -158.687225 17.269073 -0.083504 0.988594 -0.125336 
-26.411621 -158.360687 17.269073 -0.077797 0.989028 -0.125587 
-30.562897 -158.131149 21.420349 -0.093908 0.986767 -0.132181 
-26.411621 -157.767441 21.420349 -0.086408 0.986240 -0.140941 
-22.260361 -157.950195 17.269073 -0.097666 0.987684 -0.122233 
-18.109085 -157.551865 17.269073 -0.094838 0.988373 -0.118845 
-22.260361 -157.345734 21.420349 -0.100021 0.984602 -0.143367 
-19.665131 -157.078857 21.420349 -0.073921 0.987358 -0.140211 
-18.109085 -157.078857 20.599976 -0.073921 0.987358 -0.140211 
-18.109085 -156.941620 21.420349 -0.086660 0.982584 -0.164373 
-13.957809 -158.485931 8.966522 -0.023534 0.986978 -0.159124 
-9.806549 -158.742752 8.966522 0.045386 0.988593 -0.143610 
-13.957809 -157.952057 13.117798 -0.023639 0.991554 -0.127519 
-9.806549 -158.209763 13.117798 0.061247 0.989996 -0.127107 
-5.655273 -159.115356 8.966522 0.070207 0.989652 -0.125142 
-1.503998 -159.388702 8.966522 0.048622 0.992874 -0.108795 
-5.655273 -158.597977 13.117798 0.088716 0.988410 -0.123187 
-1.503998 -158.894501 13.117798 0.065245 0.990872 -0.117962 
-13.957809 -157.438309 17.269073 -0.027137 0.992064 -0.122775 
-9.806549 -157.651642 17.269073 0.061409 0.989212 -0.132995 
-13.957809 -157.078857 19.689514 -0.030821 0.989597 -0.140528 
-9.806549 -157.078857 20.466187 0.032976 0.983792 -0.176253 
-5.655273 -157.993790 17.269073 0.092148 0.985364 -0.143412 
-1.503998 -158.260818 17.269073 0.070436 0.986094 -0.150525 
-5.812195 -157.078857 21.420349 0.057099 0.975421 -0.212822 
-5.655273 -157.088043 21.420349 0.057099 0.975421 -0.212822 
-1.503998 -157.189392 21.420349 0.062163 0.966397 -0.249423 
-13.957809 -156.765076 21.420349 -0.039093 0.983209 -0.178245 
-9.806549 -156.863403 21.420349 0.023098 0.975181 -0.220200 
-51.878326 -157.078857 25.571625 0.360068 0.914877 -0.182620 
-51.319260 -157.298889 25.571625 0.360068 0.914877 -0.182620 
-51.319260 -157.078857 26.484467 0.357348 0.907967 -0.218857 
-59.621796 -148.776321 29.432098 0.746816 0.577171 -0.330363 
-59.621796 -150.985992 25.571625 0.746816 0.577171 -0.330363 
-57.794815 -152.927597 25.571625 0.643006 0.735054 -0.215031 
-55.470535 -154.960815 25.571625 0.643006 0.735054 -0.215031 
-55.856644 -152.927597 29.722900 0.637123 0.713953 -0.290422 
-55.470535 -153.272156 29.722900 0.637123 0.713953 -0.290422 
-51.319260 -155.978699 29.722900 0.484490 0.828305 -0.281391 
-59.482742 -148.776321 29.722900 0.708590 0.618947 -0.338828 
-51.667770 -148.776321 38.025452 0.496814 0.565890 -0.657985 
-51.319260 -149.082291 38.025452 0.496814 0.565890 -0.657985 
-51.319260 -152.927597 34.718353 0.496814 0.565890 -0.657985 
-51.319260 -153.598816 33.874176 0.565235 0.645698 -0.513404 
-47.167984 -158.286301 25.571625 0.188544 0.970319 -0.151434 
-43.016724 -158.526215 25.571625 0.036598 0.990316 -0.133919 
-48.017517 -157.078857 29.722900 0.176585 0.954222 -0.241409 
-47.167984 -157.236069 29.722900 0.176585 0.954222 -0.241409 
-43.016724 -157.558990 29.722900 0.056197 0.972375 -0.226558 
-38.865448 -158.335968 25.571625 -0.045357 0.989705 -0.135743 
-34.714172 -157.906342 25.571625 -0.101826 0.983894 -0.146916 
-38.865448 -157.368286 29.722900 -0.044695 0.972917 -0.226792 
-36.197906 -157.078857 29.722900 -0.091813 0.969763 -0.226121 
-34.714172 -157.078857 29.120453 -0.091813 0.969763 -0.226121 
-34.714172 -156.886047 29.722900 -0.122828 0.945200 -0.302506 
-47.167984 -157.078857 30.164124 0.171731 0.927996 -0.330652 
-43.016724 -157.078857 31.045502 0.072260 0.937522 -0.340341 
-38.865448 -157.078857 30.558990 -0.039959 0.939228 -0.340960 
-47.167984 -155.154480 33.874176 0.232581 0.863348 -0.447812 
-43.016724 -155.602692 33.874176 0.095284 0.882508 -0.460544 
-47.167984 -152.927597 36.589233 0.274802 0.743426 -0.609756 
-43.016724 -152.927597 37.140472 0.083913 0.770466 -0.631934 
-47.167984 -151.325989 38.025452 0.318101 0.632942 -0.705830 
-43.016724 -151.941284 38.025452 0.098356 0.664599 -0.740698 
-38.865448 -155.418991 33.874176 -0.052397 0.892954 -0.447089 
-34.714172 -154.884491 33.874176 -0.116260 0.894656 -0.431363 
-38.865448 -152.927597 36.968079 -0.026304 0.773380 -0.633397 
-34.714172 -152.927597 36.368622 -0.090199 0.775692 -0.624633 
-38.865448 -151.750305 38.025452 -0.030881 0.667881 -0.743627 
-34.714172 -151.086456 38.025452 -0.106363 0.665126 -0.739117 
-51.319260 -148.776321 38.210602 0.413785 0.471317 -0.778873 
-43.016724 -148.776321 40.068237 0.200850 0.392205 -0.897683 
-34.714172 -148.776321 39.451141 -0.064075 0.502709 -0.862078 
-63.849228 -140.473785 29.722900 0.844370 0.440607 -0.304804 
-59.621796 -148.575150 29.722900 0.844370 0.440607 -0.304804 
-65.722015 -132.171234 29.722900 0.860260 0.194047 -0.471486 
-59.621796 -140.473785 36.136688 0.765452 0.399426 -0.504522 
-57.686081 -140.473785 38.025452 0.623083 0.451658 -0.638571 
-59.621796 -133.951752 38.025452 0.824543 0.157387 -0.543469 
-59.799606 -132.171234 38.025452 0.811426 0.081033 -0.578810 
-64.564743 -123.868690 29.722900 0.870450 -0.121330 -0.477071 
-61.616776 -115.566147 29.722900 0.861959 -0.306054 -0.404176 
-59.621796 -126.562866 38.025452 0.813833 -0.025802 -0.580526 
-59.621796 -123.868690 37.528503 0.840765 -0.098206 -0.532420 
-59.202576 -123.868690 38.025452 0.759003 -0.118103 -0.640286 
-59.621796 -115.566147 33.920776 0.860051 -0.305377 -0.408727 
-56.891312 -115.566147 38.025452 0.747615 -0.208121 -0.630680 
-51.319260 -140.473785 41.511536 0.453562 0.328776 -0.828364 
-59.621796 -132.171234 38.205414 0.709558 0.070860 -0.701075 
-51.319260 -132.171234 43.119751 0.507450 0.086651 -0.857313 
-43.016724 -140.473785 42.910095 0.157386 0.319806 -0.934320 
-34.714172 -140.473785 42.244537 -0.070272 0.318098 -0.945450 
-43.016724 -132.171234 44.418671 0.152136 0.176692 -0.972437 
-34.714172 -132.171234 43.898346 -0.078377 0.194754 -0.977716 
-51.319260 -123.868690 43.667358 0.579615 -0.090189 -0.809884 
-51.319260 -115.566147 43.010559 0.665608 -0.058855 -0.743977 
-43.016724 -123.868690 45.518158 0.215784 0.128189 -0.967990 
-34.714172 -123.868690 45.378296 -0.061581 0.175153 -0.982613 
-43.016724 -115.566147 46.106323 0.217061 0.068980 -0.973718 
-34.714172 -117.484421 46.327972 -0.016660 0.147113 -0.988979 
-41.558304 -115.566147 46.327972 0.025935 0.092531 -0.995372 
-34.714172 -115.566147 46.584930 0.037186 0.132675 -0.990462 
-30.562897 -157.432953 25.571625 -0.111751 0.979973 -0.164820 
-27.295288 -157.078857 25.571625 -0.087951 0.979507 -0.181195 
-26.411621 -157.078857 25.142700 -0.087951 0.979507 -0.181195 
-30.562897 -157.078857 27.159668 -0.106646 0.968322 -0.225785 
-22.260361 -157.078857 22.922607 -0.096823 0.978697 -0.181045 
-26.411621 -156.981537 25.571625 -0.106789 0.969636 -0.220005 
-30.562897 -156.301086 29.722900 -0.135875 0.948043 -0.287668 
-26.411621 -155.702713 29.722900 -0.104674 0.950431 -0.292786 
-22.260361 -156.482971 25.571625 -0.116568 0.968970 -0.217966 
-18.109085 -155.999786 25.571625 -0.085694 0.971629 -0.220441 
-22.260361 -155.089294 29.722900 -0.138729 0.938835 -0.315188 
-18.109085 -154.464569 29.722900 -0.139762 0.928712 -0.343455 
-30.562897 -154.174225 33.874176 -0.150539 0.879849 -0.450781 
-26.411621 -153.434662 33.874176 -0.154465 0.867033 -0.473704 
-30.562897 -152.927597 35.500122 -0.128069 0.780303 -0.612148 
-26.411621 -152.927597 34.519806 -0.142224 0.785523 -0.602268 
-30.562897 -150.065552 38.025452 -0.160598 0.653033 -0.740106 
-26.784256 -148.776321 38.025452 -0.171161 0.626659 -0.760264 
-26.411621 -148.776321 37.941559 -0.171161 0.626659 -0.760264 
-18.109085 -148.776321 35.874023 -0.283423 0.758341 -0.587018 
-5.655273 -157.078857 21.453247 0.056292 0.961631 -0.268507 
-1.503998 -157.078857 21.740234 0.022573 0.944923 -0.326513 
-13.957809 -155.682831 25.571625 -0.073681 0.965027 -0.251584 
-9.806549 -155.568573 25.571625 -0.026266 0.954310 -0.297660 
-13.957809 -153.909256 29.722900 -0.122092 0.912709 -0.389942 
-9.806549 -153.437042 29.722900 -0.100678 0.885065 -0.454449 
-5.655273 -155.534668 25.571625 0.073405 0.933818 -0.350136 
-1.503998 -155.394577 25.571625 -0.030878 0.915013 -0.402240 
-5.857239 -152.927597 29.722900 -0.097236 0.840698 -0.532703 
-5.655273 -152.927597 29.686035 -0.097236 0.840698 -0.532703 
-1.503998 -152.927597 28.942657 -0.095409 0.840847 -0.532798 
-5.655273 -152.896088 29.722900 -0.117771 0.754876 -0.645207 
-1.503998 -152.105408 29.722900 -0.129997 0.682520 -0.719213 
-9.806549 -148.776321 33.837158 -0.170926 0.696684 -0.696718 
-1.503998 -148.776321 31.888092 -0.183541 0.595851 -0.781841 
-26.411621 -148.621780 38.025452 -0.194097 0.468015 -0.862142 
-18.109085 -143.707047 38.025452 -0.225317 0.380631 -0.896857 
-15.398834 -140.473785 38.025452 -0.244408 0.300461 -0.921948 
-9.806549 -140.473785 36.542938 -0.244408 0.300461 -0.921948 
-1.503998 -140.473785 34.322052 -0.219767 0.274442 -0.936154 
-10.956116 -132.171234 38.025452 -0.274145 0.132134 -0.952568 
-9.806549 -132.171234 37.694611 -0.274145 0.132134 -0.952568 
-1.503998 -132.171234 35.342377 -0.256607 0.117891 -0.959299 
-9.806549 -129.793289 38.025452 -0.274131 0.132523 -0.952518 
-6.968933 -123.868690 38.025452 -0.295260 0.112269 -0.948798 
-1.503998 -123.868690 36.324799 -0.295260 0.112269 -0.948798 
-3.043488 -115.566147 38.025452 -0.319704 0.132886 -0.938153 
-1.503998 -115.566147 37.500824 -0.319704 0.132886 -0.938153 
-26.411621 -140.473785 40.702942 -0.168268 0.309382 -0.935932 
-18.109085 -140.473785 38.719269 -0.227481 0.204310 -0.952108 
-26.411621 -132.171234 42.296844 -0.179389 0.185476 -0.966136 
-18.109085 -132.171234 40.080261 -0.229485 0.157448 -0.960493 
-26.411621 -123.868690 43.954559 -0.185863 0.192387 -0.963557 
-18.109085 -123.868690 41.605621 -0.253972 0.174773 -0.951290 
-31.579544 -115.566147 46.327972 -0.154753 0.181300 -0.971176 
-26.411621 -115.566147 45.504486 -0.154753 0.181300 -0.971176 
-18.109085 -115.566147 43.259430 -0.267366 0.188243 -0.945029 
-9.806549 -123.868690 38.929352 -0.303614 0.143703 -0.941896 
-9.806549 -115.566147 40.398163 -0.302540 0.166042 -0.938563 
-120.442627 -107.263596 -36.697449 0.800701 0.595834 0.062125 
-117.739609 -110.895996 -36.697449 0.800701 0.595834 0.062125 
-126.042145 -99.676041 -36.697449 0.816351 0.573782 0.065922 
-126.042145 -98.961060 -42.920593 0.816351 0.573782 0.065922 
-126.544678 -98.961060 -36.697449 0.816351 0.573782 0.065922 
-121.267212 -107.263596 -28.394897 0.784112 0.617409 0.063036 
-117.739609 -111.743668 -28.394897 0.784112 0.617409 0.063036 
-127.567123 -98.961060 -28.394897 0.800357 0.591780 0.096045 
-126.042145 -101.023529 -28.394897 0.800357 0.591780 0.096045 
-132.607468 -90.658524 -36.697449 0.805885 0.588484 0.065077 
-133.876007 -90.658524 -28.394897 0.790383 0.600592 0.120762 
-117.739609 -112.373581 -20.092377 0.784811 0.617959 0.046885 
-122.202728 -107.263596 -20.092377 0.750472 0.655470 0.084562 
-128.930328 -98.961060 -20.092377 0.777631 0.617727 0.117061 
-126.042145 -102.596878 -20.092377 0.777631 0.617727 0.117061 
-117.739609 -110.728439 -11.789825 0.746851 0.652309 -0.129254 
-121.158585 -107.263596 -11.789825 0.708968 0.699582 -0.089161 
-126.042145 -101.859848 -11.789825 0.781824 0.621057 -0.055132 
-128.480331 -98.961060 -11.789825 0.764631 0.643135 -0.041443 
-117.739609 -107.263596 -5.761536 0.660046 0.651308 -0.374349 
-126.042145 -98.961060 -6.220032 0.725651 0.610349 -0.317655 
-117.739609 -105.142258 -3.487274 0.609562 0.579701 -0.540722 
-123.824020 -98.961060 -3.487274 0.616890 0.607231 -0.500717 
-117.739609 -98.961060 0.774658 0.499562 0.491739 -0.713183 
-109.437073 -111.810776 -3.487274 0.709762 0.485451 -0.510465 
-115.287964 -107.263596 -3.487274 0.546499 0.703185 -0.454830 
-109.437073 -107.263596 -0.362762 0.402841 0.518338 -0.754351 
-101.134521 -107.263596 1.588837 0.190196 0.555985 -0.809139 
-109.437073 -98.961060 3.978516 0.323567 0.438438 -0.838497 
-106.154739 -98.961060 4.815247 0.171764 0.445339 -0.878732 
-101.134521 -100.897324 4.815247 0.171764 0.445339 -0.878732 
-130.360657 -90.658524 -3.487274 0.686058 0.523238 -0.505516 
-126.042145 -96.320862 -3.487274 0.686058 0.523238 -0.505516 
-126.042145 -90.658524 -0.116669 0.557000 0.424809 -0.713644 
-117.739609 -90.658524 3.862946 0.409797 0.318014 -0.854946 
-126.042145 -82.355972 2.010651 0.442280 0.369597 -0.817182 
-117.739609 -85.306412 4.815247 0.426778 0.158424 -0.890372 
-118.421478 -82.355972 4.815247 0.344283 0.079566 -0.935488 
-109.437073 -96.893372 4.815247 0.336810 0.353202 -0.872816 
-115.005905 -90.658524 4.815247 0.351209 0.313692 -0.882184 
-101.134521 -98.961060 5.817841 0.174622 0.452748 -0.874372 
-117.739609 -82.355972 5.042389 0.315203 0.072846 -0.946224 
-109.437073 -90.658524 6.742126 0.313878 0.280349 -0.907130 
-101.134521 -90.658524 9.459869 0.294216 0.324916 -0.898814 
-109.437073 -82.355972 8.216583 0.356188 0.071725 -0.931658 
-101.134521 -82.355972 11.715454 0.376719 0.242856 -0.893926 
-126.042145 -74.053421 2.134979 0.320754 0.014182 -0.947056 
-117.739609 -74.220383 4.815247 0.306644 -0.025701 -0.951477 
-117.739609 -74.053421 4.797089 0.303703 -0.103011 -0.947182 
-126.042145 -65.750885 1.822693 0.230597 -0.036574 -0.972362 
-117.739609 -65.750885 4.404785 0.305018 -0.044949 -0.951285 
-117.688202 -74.053421 4.815247 0.331317 -0.102011 -0.937989 
-116.652283 -65.750885 4.815247 0.352828 -0.044023 -0.934652 
-117.739609 -49.145798 3.932373 0.296861 -0.027156 -0.954535 
-116.369873 -57.448349 4.815247 0.353145 -0.012012 -0.935492 
-115.517365 -49.145798 4.815247 0.368953 -0.037884 -0.928676 
-109.437073 -74.053421 8.364777 0.392280 -0.120781 -0.911882 
-101.134521 -74.053421 12.497650 0.444049 0.084042 -0.892052 
-109.437073 -65.750885 8.131744 0.417510 -0.025494 -0.908315 
-101.134521 -65.750885 12.769592 0.487477 0.028583 -0.872668 
-109.437073 -57.448349 7.928986 0.409604 -0.022272 -0.911991 
-101.134521 -57.448349 12.814728 0.487671 0.004746 -0.873015 
-109.437073 -49.145798 7.604828 0.416736 -0.035464 -0.908336 
-101.134521 -49.145798 12.650970 0.507092 -0.016996 -0.861724 
-92.831970 -107.263596 1.901947 0.036308 0.267892 -0.962765 
-84.529434 -107.263596 1.903656 0.000206 0.004697 -0.999989 
-92.831970 -101.720856 4.815247 0.033364 0.464996 -0.884684 
-84.529434 -100.753021 4.815247 -0.047536 0.407784 -0.911840 
-76.226898 -109.549759 4.815247 0.291690 -0.144828 -0.945485 
-76.226898 -107.263596 4.257904 0.265595 -0.228346 -0.936652 
-75.163223 -107.263596 4.815247 0.453667 -0.211076 -0.865813 
-76.226898 -100.893997 4.815247 0.001480 0.087167 -0.996193 
-92.831970 -98.961060 6.489655 0.071670 0.458631 -0.885732 
-84.529434 -98.961060 5.906372 -0.059955 0.517777 -0.853412 
-67.924347 -109.953445 13.117798 0.660220 -0.327060 -0.676122 
-67.924347 -107.263596 11.299622 0.637224 -0.296479 -0.711369 
-76.226898 -98.961060 5.473846 -0.044452 0.519560 -0.853277 
-67.924347 -98.961060 8.529175 0.328949 0.304569 -0.893885 
-92.831970 -90.658524 10.957703 0.156895 0.468021 -0.869678 
-84.529434 -90.658524 10.727386 -0.060642 0.501226 -0.863189 
-92.831970 -84.966263 13.117798 0.166321 0.349851 -0.921923 
-96.448975 -82.355972 13.117798 0.210772 0.292061 -0.932886 
-84.529434 -85.573669 13.117798 -0.025097 0.425304 -0.904702 
-92.831970 -82.355972 13.794312 0.178159 0.246869 -0.952531 
-84.529434 -82.355972 14.269714 0.055344 0.250498 -0.966534 
-76.226898 -90.658524 9.493835 -0.046837 0.435314 -0.899060 
-67.924347 -90.658524 10.263000 0.090315 0.203586 -0.974883 
-76.226898 -83.655258 13.117798 -0.105599 0.457012 -0.883170 
-67.924347 -83.915390 13.117798 0.012214 0.389835 -0.920804 
-76.226898 -82.355972 13.685272 -0.064375 0.399418 -0.914506 
-67.924347 -82.355972 13.791626 0.011738 0.400221 -0.916344 
-99.699005 -74.053421 13.117798 0.284936 0.111538 -0.952035 
-100.497650 -65.750885 13.117798 0.396291 0.038120 -0.917333 
-92.831970 -74.053421 15.459930 0.320263 0.125367 -0.938997 
-84.529434 -74.053421 16.951477 0.168508 0.302973 -0.937983 
-92.831970 -65.750885 16.602783 0.413533 0.039779 -0.909620 
-84.529434 -65.750885 18.807983 0.250912 0.211237 -0.944681 
-76.226898 -74.053421 17.074768 -0.065033 0.377164 -0.923860 
-67.924347 -74.053421 17.302185 0.025221 0.389322 -0.920756 
-76.226898 -65.750885 19.670502 0.098669 0.296944 -0.949784 
-67.924347 -65.750885 20.267029 0.067509 0.335534 -0.939606 
-100.664200 -57.448349 13.117798 0.479702 0.009623 -0.877379 
-100.406799 -49.145798 13.117798 0.541592 -0.016791 -0.840474 
-92.831970 -57.448349 17.227875 0.463641 0.066520 -0.883522 
-84.529434 -57.448349 19.699982 0.283871 0.102428 -0.953376 
-92.831970 -49.145798 17.029083 0.458696 -0.021270 -0.888339 
-84.529434 -49.145798 19.768219 0.285363 0.007877 -0.958387 
-76.226898 -57.448349 20.847198 0.135547 0.139030 -0.980968 
-67.924347 -57.448349 21.384155 0.063965 0.133078 -0.989039 
-76.226898 -49.145798 21.017975 0.148819 0.020336 -0.988655 
-67.924347 -49.145798 21.277496 0.031240 -0.012839 -0.999429 
-117.739609 -32.540710 2.560211 0.225647 -0.080230 -0.970900 
-114.278259 -40.843246 4.815247 0.368659 -0.055020 -0.927935 
-111.747910 -32.540710 4.815247 0.350227 -0.106738 -0.930563 
-117.739609 -15.935623 0.743988 -0.004593 -0.088586 -0.996058 
-117.739609 -24.238174 1.482391 -0.004593 -0.088586 -0.996058 
-109.437073 -25.508835 4.815247 0.354584 -0.116524 -0.927735 
-109.437073 -24.238174 4.602753 0.347574 -0.154657 -0.924810 
-109.045990 -24.238174 4.815247 0.472353 -0.145380 -0.869338 
-109.437073 -15.935623 3.095551 0.346834 -0.167528 -0.922844 
-106.040756 -15.935623 4.815247 0.445814 -0.161369 -0.880460 
-109.437073 -40.843246 7.043365 0.417301 -0.061316 -0.906698 
-101.134521 -40.843246 12.206116 0.518834 -0.045739 -0.853651 
-109.437073 -32.540710 5.970917 0.444336 -0.114766 -0.888479 
-101.134521 -32.540710 11.312256 0.525867 -0.091047 -0.845680 
-101.134521 -24.238174 10.035980 0.543034 -0.167134 -0.822910 
-101.134521 -15.935623 7.709290 0.493883 -0.234636 -0.837273 
-117.739609 0.669464 0.266876 -0.081344 -0.008294 -0.996652 
-117.739609 -7.633072 0.335968 -0.081344 -0.008294 -0.996652 
-109.437073 -7.633072 1.550537 0.268249 -0.176243 -0.947091 
-101.134521 -9.089340 4.815247 0.320931 -0.229988 -0.918754 
-101.134521 -7.633072 4.082794 0.262890 -0.433527 -0.861942 
-109.437073 0.669464 0.333282 0.143249 -0.143566 -0.979218 
-101.134521 0.669464 0.451965 0.269134 -0.385893 -0.882413 
-117.739609 17.274551 -0.501953 -0.060538 -0.073873 -0.995429 
-117.739609 8.972000 0.114197 -0.060538 -0.073873 -0.995429 
-109.437073 8.972000 -0.553925 -0.079761 -0.105916 -0.991171 
-101.134521 8.972000 -1.346832 -0.092932 -0.210827 -0.973096 
-109.437073 17.274551 -1.135071 -0.075851 -0.069624 -0.994685 
-101.134521 17.274551 -1.740906 -0.072695 -0.047285 -0.996233 
-99.680756 -40.843246 13.117798 0.530716 -0.046410 -0.846278 
-98.292267 -32.540710 13.117798 0.534063 -0.089315 -0.840714 
-92.831970 -40.843246 16.674988 0.460597 -0.037821 -0.886803 
-84.529434 -40.843246 19.667603 0.313284 -0.011508 -0.949590 
-92.831970 -32.540710 16.195160 0.490360 -0.050284 -0.870068 
-84.529434 -32.540710 19.702515 0.339088 0.003956 -0.940746 
-76.226898 -40.843246 21.031860 0.148850 0.001654 -0.988858 
-67.924347 -40.843246 21.241669 0.031242 -0.004313 -0.999503 
-76.226898 -32.540710 21.412140 0.201482 0.044817 -0.978466 
-67.924347 -37.073380 21.420349 0.025234 0.047329 -0.998561 
-76.152405 -32.540710 21.420349 0.025614 0.046496 -0.998590 
-96.661026 -24.238174 13.117798 0.563823 -0.110777 -0.818433 
-93.928253 -15.935623 13.117798 0.588886 -0.193831 -0.784629 
-92.831970 -24.238174 15.602966 0.543444 -0.059723 -0.837318 
-84.529434 -24.238174 19.938171 0.389012 0.026137 -0.920862 
-92.831970 -15.935623 13.917542 0.581581 -0.161838 -0.797228 
-84.529434 -15.935623 19.039673 0.460740 -0.095491 -0.882383 
-76.226898 -32.413971 21.420349 0.201280 0.063314 -0.977485 
-79.926651 -24.238174 21.420349 0.200450 0.090709 -0.975496 
-78.583145 -15.935623 21.420349 0.371011 -0.060036 -0.926686 
-99.183350 -7.633072 4.815247 0.317958 -0.426014 -0.847004 
-92.831970 -2.795822 4.815247 0.296166 -0.388871 -0.872390 
-92.831970 0.669464 2.124634 0.157152 -0.605665 -0.780047 
-86.156509 0.669464 4.815247 0.303359 -0.584385 -0.752640 
-92.831970 8.972000 -1.677429 0.180174 -0.409545 -0.894321 
-84.529434 4.820740 1.280090 0.272882 -0.683499 -0.677026 
-84.529434 5.621719 0.664001 0.088052 -0.414742 -0.905669 
-84.529434 8.972000 -1.148926 0.055897 -0.475172 -0.878116 
-84.529434 1.258316 4.815247 0.247023 -0.682556 -0.687821 
-92.831970 17.274551 -2.162231 -0.050595 -0.058218 -0.997021 
-84.529434 17.274551 -2.612579 0.062566 -0.173272 -0.982885 
-80.378159 6.886765 0.664001 0.143527 -0.470989 -0.870385 
-80.378159 8.972000 -0.659576 0.099034 -0.533264 -0.840132 
-76.226898 7.778763 0.664001 0.114395 -0.532380 -0.838740 
-76.226898 8.972000 -0.195618 0.090312 -0.582135 -0.808061 
-80.378159 2.652740 4.815247 0.230248 -0.685460 -0.690747 
-80.378159 4.820740 2.474121 0.191804 -0.720093 -0.666842 
-76.226898 4.820740 3.680359 0.193692 -0.719820 -0.666590 
-76.226898 3.890076 4.815247 0.224589 -0.753495 -0.617903 
-72.075623 8.580704 0.664001 0.112205 -0.580832 -0.806253 
-72.075623 8.972000 0.353485 0.103061 -0.618303 -0.779153 
-69.981430 8.972000 0.664001 0.115372 -0.617462 -0.778094 
-72.407547 4.820740 4.815247 0.185160 -0.759878 -0.623138 
-72.075623 4.892593 4.815247 0.159754 -0.737977 -0.655644 
-67.924347 5.720383 4.815247 0.147896 -0.741685 -0.654240 
-67.924347 8.972000 0.997650 0.104594 -0.757108 -0.644863 
-76.226898 17.274551 -2.918793 0.105603 -0.309914 -0.944882 
-67.924347 17.274551 -2.896545 0.145287 -0.420141 -0.895753 
-92.831970 -13.741531 13.117798 0.574966 -0.287283 -0.766082 
-92.831970 -7.633072 9.066071 0.512735 -0.387540 -0.766104 
-87.087173 -7.633072 13.117798 0.506707 -0.476540 -0.718441 
-84.529434 -3.481812 10.534637 0.436204 -0.653614 -0.618478 
-84.529434 -2.193405 8.966522 0.389957 -0.607848 -0.691704 
-84.529434 0.669464 5.496643 0.257531 -0.745332 -0.614946 
-84.529434 -5.855270 13.117798 0.455613 -0.655495 -0.602282 
-84.529434 -7.633072 14.711639 0.483646 -0.404593 -0.776138 
-80.378159 0.669464 7.277954 0.263438 -0.744103 -0.613932 
-80.378159 -0.618652 8.966522 0.288756 -0.761203 -0.580680 
-76.365265 0.669464 8.966522 0.247287 -0.770378 -0.587679 
-80.378159 -3.481812 12.754761 0.340252 -0.692428 -0.636217 
-80.378159 -3.764465 13.117798 0.369311 -0.733264 -0.570906 
-79.593369 -3.481812 13.117798 0.273362 -0.758991 -0.590936 
-76.226898 -2.401093 13.117798 0.248703 -0.774717 -0.581344 
-76.226898 0.669464 9.020355 0.227211 -0.779307 -0.584000 
-72.075623 0.669464 10.578674 0.219616 -0.780700 -0.585044 
-72.075623 -1.249557 13.117798 0.216071 -0.778935 -0.588705 
-67.924347 0.669464 11.990112 0.200826 -0.781527 -0.590664 
-67.924347 -0.213699 13.117798 0.192767 -0.772527 -0.605016 
-80.378159 -7.633072 16.879242 0.341772 -0.393018 -0.853656 
-79.424789 -7.633072 17.269073 0.348398 -0.390702 -0.852039 
-76.226898 -13.053802 21.420349 0.445139 -0.363956 -0.818161 
-76.226898 -7.633072 18.430908 0.303168 -0.460188 -0.834455 
-72.075623 -7.633072 19.589874 0.237478 -0.469101 -0.850617 
-67.924347 -9.321381 21.420349 0.201592 -0.448430 -0.870787 
-67.924347 -7.633072 20.357025 0.154492 -0.526528 -0.836003 
-76.226898 -3.481812 14.496674 0.279965 -0.672929 -0.684680 
-76.226898 -6.188324 17.269073 0.307602 -0.680865 -0.664684 
-72.075623 -3.481812 15.848602 0.221827 -0.697731 -0.681149 
-72.075623 -4.832596 17.269073 0.230298 -0.705180 -0.670585 
-67.924347 -3.481812 16.855438 0.164847 -0.714745 -0.679680 
-67.924347 -3.884171 17.269073 0.161614 -0.707387 -0.688102 
-76.226898 0.709320 8.966522 0.222893 -0.773812 -0.592903 
-72.075623 1.853333 8.966522 0.213698 -0.775444 -0.594154 
-72.075623 4.820740 4.913971 0.173066 -0.794654 -0.581871 
-67.924347 4.820740 6.161652 0.174828 -0.794403 -0.581687 
-67.924347 2.900650 8.966522 0.203812 -0.807854 -0.553021 
-67.924347 -32.540710 21.771912 0.042561 0.077260 -0.996102 
-76.226898 -24.238174 22.156799 0.194466 0.088001 -0.976954 
-67.924347 -24.238174 22.767487 0.073062 0.089474 -0.993306 
-76.226898 -15.935623 22.038422 0.253704 -0.013790 -0.967184 
-67.924347 -15.935623 23.218719 0.140542 0.053730 -0.988616 
-66.568573 -107.263596 13.117798 0.743277 -0.374636 -0.554245 
-63.553696 -98.961060 13.117798 0.769710 -0.279503 -0.573956 
-61.796799 -107.263596 21.420349 0.809576 -0.362059 -0.462060 
-59.621796 -100.929199 21.420349 0.837445 -0.287549 -0.464759 
-59.621796 -98.961060 20.121918 0.829798 -0.307316 -0.465824 
-59.075134 -98.961060 21.420349 0.892856 -0.247996 -0.375907 
-63.247910 -90.658524 13.117798 0.520952 -0.019187 -0.853370 
-59.621796 -90.658524 17.423157 0.764560 -0.028159 -0.643937 
-57.385468 -90.658524 21.420349 0.905851 -0.184352 -0.381378 
-59.621796 -82.355972 18.154297 0.434455 0.357265 -0.826807 
-57.010239 -82.355972 21.420349 0.780533 -0.035276 -0.624119 
-59.621796 -74.053421 20.418854 0.340514 0.247416 -0.907103 
-58.262146 -74.053421 21.420349 0.590707 0.089070 -0.801955 
-59.621796 -70.103287 21.420349 0.341940 0.230945 -0.910901 
-61.783051 -65.750885 21.420349 0.183801 0.091269 -0.978717 
-67.188187 -57.448349 21.420349 0.183253 0.119302 -0.975800 
-59.621796 -53.816284 21.420349 0.007921 -0.016501 -0.999833 
-59.621796 -49.145798 20.930908 -0.041482 -0.104134 -0.993698 
-51.319260 -51.530121 21.420349 0.028687 -0.104181 -0.994145 
-51.319260 -49.145798 20.600555 -0.037601 -0.324915 -0.944996 
-44.020523 -49.145798 21.420349 0.105623 -0.323326 -0.940375 
-59.621796 -110.271912 29.722900 0.856906 -0.322900 -0.401806 
-59.621796 -107.263596 26.894226 0.858160 -0.383787 -0.340983 
-58.514099 -107.263596 29.722900 0.880817 -0.324327 -0.344924 
-55.635239 -98.961060 29.722900 0.886109 -0.307254 -0.346996 
-53.943329 -107.263596 38.025452 0.798447 -0.283504 -0.531138 
-51.500641 -98.961060 38.025452 0.865629 -0.254677 -0.431076 
-53.642090 -90.658524 29.722900 0.890547 -0.213789 -0.401522 
-52.465271 -82.355972 29.722900 0.870468 -0.123382 -0.476510 
-51.319260 -98.224716 38.025452 0.874147 -0.215326 -0.435318 
-51.319260 -90.658524 35.035309 0.894851 -0.214823 -0.391270 
-51.319260 -82.355972 32.226654 0.901818 -0.127825 -0.412778 
-49.683365 -90.658524 38.025452 0.861921 -0.186357 -0.471554 
-48.327179 -82.355972 38.025452 0.868418 -0.141852 -0.475108 
-51.319260 -107.263596 41.106018 0.752973 -0.147131 -0.641393 
-51.319260 -98.961060 38.302399 0.812312 -0.238990 -0.532008 
-43.016724 -107.263596 46.137970 0.349371 0.003571 -0.936978 
-42.431213 -107.263596 46.327972 0.150235 0.015795 -0.988524 
-43.016724 -98.961060 45.806793 0.518009 -0.034093 -0.854696 
-41.963211 -98.961060 46.327972 0.443275 -0.024987 -0.896037 
-34.714172 -107.263596 47.465881 0.145860 0.015335 -0.989186 
-34.714172 -98.961060 48.126404 0.240078 0.076987 -0.967696 
-43.016724 -90.658524 45.497955 0.745969 -0.024756 -0.665521 
-41.814682 -90.658524 46.327972 0.443400 -0.007932 -0.896289 
-43.016724 -82.355972 45.064880 0.797922 -0.031398 -0.601942 
-41.562592 -82.355972 46.327972 0.568123 -0.017250 -0.822763 
-34.714172 -90.658524 48.957092 0.345715 0.093417 -0.933678 
-34.714172 -82.355972 49.797882 0.450136 0.089969 -0.888416 
-51.809036 -74.053421 29.722900 0.875070 -0.069166 -0.479029 
-59.621796 -65.750885 22.047943 0.276229 0.137166 -0.951253 
-51.319260 -69.813934 29.722900 0.786292 -0.090838 -0.611141 
-51.319260 -65.750885 28.411316 0.604372 0.113704 -0.788547 
-51.319260 -74.053421 30.600830 0.871222 -0.068862 -0.486035 
-50.251343 -65.750885 29.722900 0.759839 -0.199713 -0.618675 
