-15.45 -40.95 -3.45 0 0 0 
-15.15 -40.95 -3.45 0 0 0 
-15.15 -40.95 -3.15 0 0 0 
-15.15 -41.25 -2.85 0 0 0 
-15.45 -40.95 -2.85 0 0 0 
-15.15 -41.25 -2.55 0 0 0 
-16.65 -41.85 -2.25 0 0 0 
-15.15 -41.25 -2.25 0 0 0 
-15.15 -41.25 -1.95 0 0 0 
-14.85 -41.25 -2.25 0 0 0 
-14.25 -42.15 -3.75 0 0 0 
-13.95 -41.25 -4.65 0 0 0 
-13.95 -41.25 -4.35 0 0 0 
-13.35 -41.25 -4.35 0 0 0 
-14.25 -41.85 -4.05 0 0 0 
-14.25 -42.15 -3.45 0 0 0 
-13.95 -42.15 -3.15 0 0 0 
-13.35 -39.45 -3.45 0 0 0 
-13.65 -39.45 -3.15 0 0 0 
-6.45 -40.35 -7.05 0 0 0 
-6.15 -40.05 -7.05 0 0 0 
-1.95 -42.15 -9.45 0 0 0 
-1.95 -42.15 -9.15 0 0 0 
-1.95 -42.15 -8.85 0 0 0 
-1.95 -40.35 -8.55 0 0 0 
-1.95 -39.75 -8.55 0 0 0 
-10.05 -37.05 -27.15 0 0 0 
-10.65 -34.05 -28.05 0 0 0 
-11.25 -35.85 -27.15 0 0 0 
-10.95 -35.85 -27.15 0 0 0 
-10.95 -35.85 -26.85 0 0 0 
-10.95 -35.85 -26.55 0 0 0 
-10.35 -35.85 -26.55 0 0 0 
-10.65 -35.55 -26.55 0 0 0 
-10.05 -34.05 -27.45 0 0 0 
-10.05 -34.05 -27.15 0 0 0 
-9.75 -34.65 -26.55 0 0 0 
-10.95 -37.05 -25.95 0 0 0 
-11.85 -37.35 -24.15 0 0 0 
-10.95 -35.85 -26.25 0 0 0 
-10.95 -35.85 -25.95 0 0 0 
-10.35 -35.85 -26.25 0 0 0 
-10.05 -35.85 -26.25 0 0 0 
-10.05 -35.85 -25.95 0 0 0 
-11.25 -34.05 -25.95 0 0 0 
-11.25 -34.05 -25.35 0 0 0 
-10.65 -34.95 -24.75 0 0 0 
-10.35 -34.95 -24.75 0 0 0 
-10.65 -34.95 -24.45 0 0 0 
-10.65 -34.95 -24.15 0 0 0 
-11.55 -34.05 -24.15 0 0 0 
-10.95 -31.95 -25.05 0 0 0 
-10.65 -31.95 -24.75 0 0 0 
-10.65 -32.25 -24.45 0 0 0 
-10.05 -30.75 -24.15 0 0 0 
-10.05 -30.45 -24.45 0 0 0 
-12.15 -37.35 -23.55 0 0 0 
-13.05 -37.05 -22.95 0 0 0 
-12.75 -37.65 -22.35 0 0 0 
-12.75 -37.65 -22.05 0 0 0 
-12.75 -37.65 -21.75 0 0 0 
-12.75 -37.05 -22.35 0 0 0 
-12.45 -37.05 -22.05 0 0 0 
-12.15 -37.05 -21.75 0 0 0 
-11.85 -37.35 -23.85 0 0 0 
-11.85 -36.15 -22.05 0 0 0 
-11.55 -36.15 -22.05 0 0 0 
-11.85 -36.15 -21.75 0 0 0 
-13.05 -35.85 -22.05 0 0 0 
-12.75 -35.85 -21.75 0 0 0 
-12.45 -34.05 -22.05 0 0 0 
-12.15 -34.05 -22.05 0 0 0 
-12.15 -34.05 -21.75 0 0 0 
-11.85 -34.05 -23.85 0 0 0 
-11.55 -34.05 -23.55 0 0 0 
-11.55 -34.05 -23.25 0 0 0 
-11.85 -34.05 -21.75 0 0 0 
-12.75 -37.65 -21.45 0 0 0 
-12.45 -37.65 -21.45 0 0 0 
-12.75 -36.15 -20.55 0 0 0 
-13.65 -37.95 -19.35 0 0 0 
-12.75 -36.15 -20.25 0 0 0 
-13.05 -35.85 -21.45 0 0 0 
-13.05 -35.85 -21.15 0 0 0 
-12.75 -35.85 -20.85 0 0 0 
-12.45 -35.25 -20.55 0 0 0 
-12.75 -35.25 -19.95 0 0 0 
-12.45 -35.25 -20.25 0 0 0 
-12.15 -35.25 -20.25 0 0 0 
-12.45 -35.25 -19.65 0 0 0 
-10.95 -34.95 -21.45 0 0 0 
-11.85 -34.35 -21.45 0 0 0 
-11.25 -32.25 -23.25 0 0 0 
-11.25 -32.25 -22.65 0 0 0 
-10.95 -30.75 -22.95 0 0 0 
-9.75 -30.75 -23.55 0 0 0 
-10.05 -30.75 -23.25 0 0 0 
-10.05 -30.75 -22.95 0 0 0 
-10.65 -30.75 -22.65 0 0 0 
-10.35 -30.75 -22.35 0 0 0 
-10.05 -30.75 -22.65 0 0 0 
-9.75 -30.75 -22.35 0 0 0 
-10.35 -30.75 -22.05 0 0 0 
-9.75 -31.05 -22.05 0 0 0 
-12.75 -32.55 -19.35 0 0 0 
-10.05 -28.35 -22.05 0 0 0 
-10.05 -28.35 -21.75 0 0 0 
-9.75 -28.35 -21.45 0 0 0 
-10.05 -28.35 -21.15 0 0 0 
-10.05 -28.65 -20.85 0 0 0 
-9.75 -28.65 -20.85 0 0 0 
-9.75 -28.65 -20.55 0 0 0 
-9.75 -28.65 -20.25 0 0 0 
-9.75 -28.65 -19.95 0 0 0 
-10.35 -28.05 -20.25 0 0 0 
-10.05 -27.45 -20.25 0 0 0 
-10.05 -27.45 -19.95 0 0 0 
-9.75 -27.45 -19.95 0 0 0 
-9.75 -27.45 -19.65 0 0 0 
-10.05 -27.45 -19.35 0 0 0 
-9.75 -27.45 -19.35 0 0 0 
-9.15 -27.75 -24.45 0 0 0 
-8.85 -27.75 -24.15 0 0 0 
-9.15 -27.75 -23.25 0 0 0 
-9.15 -27.75 -22.95 0 0 0 
-9.15 -28.05 -22.65 0 0 0 
-9.15 -28.05 -22.35 0 0 0 
-9.45 -27.15 -22.35 0 0 0 
-9.15 -27.15 -22.05 0 0 0 
-9.45 -27.15 -21.75 0 0 0 
-9.15 -27.15 -21.75 0 0 0 
-8.55 -25.35 -22.05 0 0 0 
-8.25 -25.35 -22.05 0 0 0 
-8.25 -25.35 -21.75 0 0 0 
-9.15 -27.45 -21.45 0 0 0 
-9.15 -27.45 -21.15 0 0 0 
-9.45 -25.65 -19.65 0 0 0 
-8.85 -25.65 -19.35 0 0 0 
-8.55 -23.85 -22.65 0 0 0 
-8.55 -23.85 -22.35 0 0 0 
-8.25 -23.85 -22.05 0 0 0 
-8.55 -23.85 -21.45 0 0 0 
-8.55 -23.85 -20.85 0 0 0 
-9.15 -23.85 -19.35 0 0 0 
-8.85 -23.85 -19.35 0 0 0 
-7.95 -23.55 -20.25 0 0 0 
-7.95 -23.55 -19.95 0 0 0 
-14.55 -37.95 -17.85 0 0 0 
-14.55 -37.95 -17.55 0 0 0 
-15.15 -37.95 -17.25 0 0 0 
-14.85 -37.95 -16.95 0 0 0 
-14.85 -37.95 -16.65 0 0 0 
-14.55 -38.25 -16.35 0 0 0 
-13.95 -37.95 -19.05 0 0 0 
-13.95 -37.95 -18.75 0 0 0 
-13.95 -37.95 -18.45 0 0 0 
-13.95 -37.95 -18.15 0 0 0 
-13.35 -36.45 -18.15 0 0 0 
-13.65 -36.45 -17.85 0 0 0 
-13.65 -36.45 -17.55 0 0 0 
-13.95 -36.45 -17.25 0 0 0 
-13.65 -35.25 -18.45 0 0 0 
-13.35 -35.25 -18.45 0 0 0 
-13.35 -35.25 -18.15 0 0 0 
-13.35 -34.05 -18.75 0 0 0 
-13.35 -34.35 -18.15 0 0 0 
-13.95 -34.05 -18.45 0 0 0 
-14.25 -34.05 -18.15 0 0 0 
-13.95 -34.05 -18.15 0 0 0 
-13.65 -34.05 -18.15 0 0 0 
-13.35 -34.05 -18.15 0 0 0 
-13.35 -35.25 -17.85 0 0 0 
-13.35 -35.25 -17.55 0 0 0 
-13.35 -35.55 -16.95 0 0 0 
-13.35 -35.25 -17.25 0 0 0 
-13.35 -34.35 -17.85 0 0 0 
-10.95 -37.95 -16.35 0 0 0 
-10.95 -37.95 -16.05 0 0 0 
-10.05 -34.05 -14.85 0 0 0 
-10.05 -34.05 -14.55 0 0 0 
-13.05 -32.55 -19.05 0 0 0 
-13.05 -32.85 -18.75 0 0 0 
-13.05 -32.55 -18.75 0 0 0 
-13.05 -32.85 -18.45 0 0 0 
-12.75 -32.85 -18.45 0 0 0 
-12.75 -32.85 -18.15 0 0 0 
-13.05 -32.85 -17.85 0 0 0 
-9.75 -32.25 -17.85 0 0 0 
-14.55 -36.15 -13.95 0 0 0 
-14.55 -36.15 -13.65 0 0 0 
-14.85 -36.15 -13.35 0 0 0 
-14.55 -36.15 -13.35 0 0 0 
-15.15 -37.35 -12.45 0 0 0 
-15.15 -37.35 -12.15 0 0 0 
-15.15 -36.15 -12.75 0 0 0 
-14.85 -36.15 -13.05 0 0 0 
-15.15 -36.15 -12.45 0 0 0 
-14.55 -36.15 -12.15 0 0 0 
-15.75 -37.35 -11.85 0 0 0 
-16.05 -37.35 -11.55 0 0 0 
-16.05 -37.35 -11.25 0 0 0 
-15.75 -37.35 -11.25 0 0 0 
-15.75 -37.35 -10.95 0 0 0 
-15.45 -37.35 -11.85 0 0 0 
-15.45 -37.35 -10.95 0 0 0 
-15.15 -36.15 -11.55 0 0 0 
-14.85 -36.15 -11.85 0 0 0 
-15.15 -36.15 -11.25 0 0 0 
-15.15 -36.15 -10.95 0 0 0 
-16.05 -37.35 -10.05 0 0 0 
-16.05 -37.35 -9.75 0 0 0 
-15.75 -37.35 -9.75 0 0 0 
-15.45 -37.35 -10.65 0 0 0 
-15.45 -37.35 -10.35 0 0 0 
-15.45 -37.35 -10.05 0 0 0 
-15.45 -36.15 -10.65 0 0 0 
-15.45 -36.15 -10.35 0 0 0 
-15.45 -36.15 -10.05 0 0 0 
-15.45 -36.15 -9.75 0 0 0 
-14.85 -36.15 -9.75 0 0 0 
-15.15 -34.05 -11.55 0 0 0 
-14.85 -34.05 -11.85 0 0 0 
-15.15 -34.35 -10.95 0 0 0 
-14.85 -34.35 -10.95 0 0 0 
-15.15 -34.05 -11.25 0 0 0 
-15.15 -34.05 -10.95 0 0 0 
-14.85 -33.75 -11.25 0 0 0 
-15.15 -34.35 -10.65 0 0 0 
-14.85 -34.35 -10.35 0 0 0 
-15.15 -34.05 -10.65 0 0 0 
-14.55 -33.75 -10.65 0 0 0 
-14.85 -34.05 -10.35 0 0 0 
-14.55 -33.75 -10.35 0 0 0 
-14.85 -34.65 -10.05 0 0 0 
-14.85 -34.35 -10.05 0 0 0 
-14.85 -34.65 -9.75 0 0 0 
-15.15 -34.05 -9.75 0 0 0 
-14.85 -34.05 -10.05 0 0 0 
-14.85 -34.05 -9.75 0 0 0 
-12.75 -35.85 -12.15 0 0 0 
-12.75 -34.05 -12.15 0 0 0 
-10.05 -34.35 -13.95 0 0 0 
-10.05 -34.05 -14.25 0 0 0 
-12.45 -36.15 -11.85 0 0 0 
-14.25 -33.75 -10.95 0 0 0 
-14.25 -33.75 -10.65 0 0 0 
-14.25 -33.75 -10.05 0 0 0 
-13.95 -33.75 -10.05 0 0 0 
-14.25 -33.75 -9.75 0 0 0 
-14.85 -33.45 -11.55 0 0 0 
-14.85 -33.45 -11.25 0 0 0 
-13.35 -31.35 -12.45 0 0 0 
-13.35 -31.35 -12.15 0 0 0 
-13.05 -31.35 -13.05 0 0 0 
-13.35 -31.05 -13.35 0 0 0 
-13.95 -31.05 -12.75 0 0 0 
-13.35 -31.05 -13.05 0 0 0 
-13.35 -31.05 -12.75 0 0 0 
-13.05 -31.05 -12.45 0 0 0 
-13.05 -31.05 -12.15 0 0 0 
-13.65 -31.35 -11.85 0 0 0 
-13.35 -31.35 -11.55 0 0 0 
-13.95 -31.35 -11.25 0 0 0 
-13.95 -31.35 -10.95 0 0 0 
-13.65 -31.35 -10.95 0 0 0 
-13.05 -31.35 -11.85 0 0 0 
-13.95 -31.35 -10.35 0 0 0 
-13.65 -31.35 -10.65 0 0 0 
-13.65 -31.35 -10.35 0 0 0 
-13.35 -31.35 -10.35 0 0 0 
-13.65 -31.35 -10.05 0 0 0 
-13.35 -31.35 -10.05 0 0 0 
-13.65 -31.35 -9.75 0 0 0 
-13.35 -31.35 -9.75 0 0 0 
-13.35 -31.05 -11.25 0 0 0 
-13.65 -31.05 -10.95 0 0 0 
-13.65 -31.05 -10.65 0 0 0 
-12.75 -29.25 -10.05 0 0 0 
-12.75 -29.25 -9.75 0 0 0 
-1.35 -35.85 -18.15 0 0 0 
-1.35 -35.85 -17.85 0 0 0 
-1.35 -35.85 -17.55 0 0 0 
-1.35 -35.85 -17.25 0 0 0 
-1.35 -35.85 -16.95 0 0 0 
-1.35 -36.15 -16.35 0 0 0 
-1.65 -36.75 -15.75 0 0 0 
-1.65 -36.45 -16.05 0 0 0 
-1.65 -36.15 -16.05 0 0 0 
-1.65 -36.45 -15.75 0 0 0 
-1.95 -37.05 -15.15 0 0 0 
-1.65 -36.75 -15.45 0 0 0 
-1.65 -36.75 -15.15 0 0 0 
-1.95 -37.05 -14.85 0 0 0 
-1.95 -37.05 -14.55 0 0 0 
-4.35 -35.25 -15.45 0 0 0 
-4.35 -35.25 -15.15 0 0 0 
-4.35 -35.55 -14.85 0 0 0 
-1.35 -35.85 -16.65 0 0 0 
-1.95 -33.75 -15.45 0 0 0 
-1.95 -33.75 -15.15 0 0 0 
-1.95 -33.75 -14.85 0 0 0 
-1.95 -33.75 -14.55 0 0 0 
-8.55 -32.85 -17.55 0 0 0 
-8.25 -32.85 -17.25 0 0 0 
-8.25 -32.55 -16.95 0 0 0 
-5.25 -31.35 -19.05 0 0 0 
-5.25 -31.35 -18.75 0 0 0 
-7.35 -28.95 -17.85 0 0 0 
-7.65 -28.95 -17.25 0 0 0 
-8.55 -32.85 -16.35 0 0 0 
-8.55 -32.85 -16.05 0 0 0 
-8.55 -32.85 -15.75 0 0 0 
-8.25 -32.85 -16.65 0 0 0 
-8.25 -32.85 -16.35 0 0 0 
-8.55 -32.85 -15.45 0 0 0 
-8.55 -32.85 -15.15 0 0 0 
-7.65 -30.15 -14.85 0 0 0 
-1.95 -33.15 -16.65 0 0 0 
-1.95 -33.15 -16.35 0 0 0 
-1.95 -33.45 -16.05 0 0 0 
-1.95 -33.45 -15.75 0 0 0 
-1.65 -33.45 -14.55 0 0 0 
-2.85 -29.85 -16.65 0 0 0 
-2.85 -29.85 -16.35 0 0 0 
-3.15 -29.55 -16.05 0 0 0 
-4.95 -36.45 -13.95 0 0 0 
-4.95 -36.75 -13.35 0 0 0 
-4.95 -36.45 -13.65 0 0 0 
-4.95 -37.05 -13.05 0 0 0 
-4.95 -37.05 -12.45 0 0 0 
-8.85 -34.05 -13.95 0 0 0 
-8.85 -34.05 -13.65 0 0 0 
-4.65 -36.45 -13.95 0 0 0 
-1.95 -37.05 -14.25 0 0 0 
-1.95 -36.75 -12.45 0 0 0 
-1.95 -36.75 -12.15 0 0 0 
-1.95 -34.35 -13.95 0 0 0 
-1.95 -34.05 -14.25 0 0 0 
-1.95 -34.05 -13.95 0 0 0 
-1.95 -36.75 -11.85 0 0 0 
-1.95 -36.75 -11.55 0 0 0 
-1.95 -36.45 -11.85 0 0 0 
-1.95 -37.95 -10.05 0 0 0 
-1.95 -37.65 -9.75 0 0 0 
-8.85 -33.45 -13.95 0 0 0 
-6.45 -31.35 -12.75 0 0 0 
-6.45 -31.35 -12.45 0 0 0 
-6.45 -31.35 -12.15 0 0 0 
-7.95 -30.75 -13.65 0 0 0 
-6.15 -31.65 -11.85 0 0 0 
-6.45 -31.65 -11.55 0 0 0 
-0.45 -29.55 -11.25 0 0 0 
-10.35 -28.05 -19.05 0 0 0 
-10.35 -28.05 -18.75 0 0 0 
-10.05 -27.45 -19.05 0 0 0 
-11.85 -25.95 -13.05 0 0 0 
-11.55 -25.95 -12.75 0 0 0 
-11.85 -25.95 -12.45 0 0 0 
-11.55 -25.95 -12.45 0 0 0 
-11.85 -25.95 -12.15 0 0 0 
-12.45 -28.35 -11.55 0 0 0 
-12.45 -28.35 -11.25 0 0 0 
-12.15 -28.35 -11.25 0 0 0 
-12.45 -28.35 -10.95 0 0 0 
-12.75 -28.35 -10.35 0 0 0 
-12.45 -28.35 -10.65 0 0 0 
-12.45 -28.35 -10.35 0 0 0 
-12.75 -28.35 -10.05 0 0 0 
-12.75 -28.35 -9.75 0 0 0 
-12.45 -28.35 -10.05 0 0 0 
-12.45 -28.35 -9.75 0 0 0 
-11.85 -28.35 -11.25 0 0 0 
-11.55 -26.55 -10.35 0 0 0 
-11.55 -26.55 -10.05 0 0 0 
-11.85 -26.55 -9.75 0 0 0 
-12.15 -25.95 -11.25 0 0 0 
-12.15 -26.25 -10.95 0 0 0 
-12.15 -26.25 -10.65 0 0 0 
-12.15 -26.25 -9.75 0 0 0 
-11.85 -25.95 -11.85 0 0 0 
-11.55 -26.25 -11.55 0 0 0 
-11.85 -25.95 -11.55 0 0 0 
-11.85 -26.25 -10.95 0 0 0 
-11.25 -24.45 -11.55 0 0 0 
-11.55 -24.45 -11.25 0 0 0 
-11.55 -24.45 -10.95 0 0 0 
-10.95 -24.15 -11.25 0 0 0 
-11.25 -24.45 -10.95 0 0 0 
-10.95 -24.15 -10.95 0 0 0 
-10.65 -24.15 -11.25 0 0 0 
-11.85 -26.25 -10.65 0 0 0 
-11.55 -26.25 -10.65 0 0 0 
-11.85 -26.25 -10.35 0 0 0 
-11.85 -26.25 -10.05 0 0 0 
-11.85 -26.25 -9.75 0 0 0 
-11.55 -24.45 -10.35 0 0 0 
-11.25 -24.45 -10.65 0 0 0 
-11.25 -24.15 -10.65 0 0 0 
-11.25 -24.45 -10.35 0 0 0 
-10.95 -24.15 -10.35 0 0 0 
-11.55 -24.75 -9.75 0 0 0 
-11.55 -24.45 -10.05 0 0 0 
-11.25 -24.45 -10.05 0 0 0 
-10.95 -24.15 -10.05 0 0 0 
-11.25 -24.45 -9.75 0 0 0 
-11.25 -24.15 -9.75 0 0 0 
-10.95 -24.15 -9.75 0 0 0 
-10.65 -24.15 -10.35 0 0 0 
-9.75 -21.45 -13.35 0 0 0 
-9.75 -21.45 -13.05 0 0 0 
-10.05 -21.45 -12.75 0 0 0 
-9.75 -21.45 -12.75 0 0 0 
-10.05 -21.45 -12.45 0 0 0 
-10.05 -21.45 -12.15 0 0 0 
-9.75 -21.45 -12.15 0 0 0 
-10.35 -22.95 -10.65 0 0 0 
-10.35 -22.95 -10.35 0 0 0 
-10.35 -22.95 -10.05 0 0 0 
-10.35 -22.95 -9.75 0 0 0 
-10.35 -21.75 -9.75 0 0 0 
-10.05 -21.45 -11.85 0 0 0 
-9.75 -21.45 -11.85 0 0 0 
-10.05 -21.45 -11.55 0 0 0 
-10.35 -21.45 -10.95 0 0 0 
-10.05 -21.45 -11.25 0 0 0 
-10.05 -21.45 -10.95 0 0 0 
-10.35 -21.45 -10.65 0 0 0 
-10.35 -21.45 -10.35 0 0 0 
-10.35 -21.45 -10.05 0 0 0 
-9.15 -25.65 -19.05 0 0 0 
-8.85 -25.65 -19.05 0 0 0 
-8.85 -25.65 -18.75 0 0 0 
-9.15 -25.95 -18.15 0 0 0 
-8.85 -25.95 -18.45 0 0 0 
-8.85 -25.65 -18.45 0 0 0 
-8.85 -25.95 -17.85 0 0 0 
-8.25 -28.35 -15.75 0 0 0 
-7.95 -28.65 -15.15 0 0 0 
-8.25 -28.35 -14.55 0 0 0 
-0.45 -28.65 -15.75 0 0 0 
-0.15 -28.05 -14.85 0 0 0 
-0.15 -27.75 -14.55 0 0 0 
-8.85 -23.85 -19.05 0 0 0 
-8.55 -23.85 -19.05 0 0 0 
-8.55 -23.85 -18.75 0 0 0 
-8.55 -23.85 -18.45 0 0 0 
-8.85 -23.85 -18.15 0 0 0 
-8.25 -28.35 -14.25 0 0 0 
-8.25 -28.65 -13.95 0 0 0 
-8.25 -28.35 -13.95 0 0 0 
-4.35 -26.85 -14.25 0 0 0 
-4.35 -26.85 -13.95 0 0 0 
-4.35 -26.85 -13.65 0 0 0 
-0.15 -28.05 -14.25 0 0 0 
-0.15 -27.75 -14.25 0 0 0 
-0.15 -28.05 -13.95 0 0 0 
-0.15 -28.05 -13.65 0 0 0 
-0.15 -28.05 -13.35 0 0 0 
-0.15 -28.05 -13.05 0 0 0 
-0.15 -28.05 -12.75 0 0 0 
-0.15 -28.05 -12.45 0 0 0 
-0.15 -28.05 -12.15 0 0 0 
-0.15 -28.35 -11.85 0 0 0 
-0.15 -28.35 -11.55 0 0 0 
-0.15 -28.05 -11.85 0 0 0 
-7.35 -19.35 -13.35 0 0 0 
-7.95 -19.35 -13.05 0 0 0 
-8.25 -19.65 -10.95 0 0 0 
-8.25 -19.65 -10.65 0 0 0 
-15.75 -37.35 -9.45 0 0 0 
-15.75 -37.35 -9.15 0 0 0 
-15.75 -37.35 -8.85 0 0 0 
-15.75 -37.65 -8.55 0 0 0 
-15.75 -37.35 -8.55 0 0 0 
-15.45 -37.35 -8.85 0 0 0 
-15.15 -37.65 -8.55 0 0 0 
-15.45 -36.15 -9.45 0 0 0 
-15.15 -36.15 -9.45 0 0 0 
-15.15 -36.15 -9.15 0 0 0 
-15.45 -36.15 -8.85 0 0 0 
-15.15 -36.15 -8.85 0 0 0 
-15.45 -36.15 -8.55 0 0 0 
-14.85 -36.15 -8.55 0 0 0 
-15.75 -37.65 -8.25 0 0 0 
-16.05 -37.65 -7.95 0 0 0 
-16.05 -37.65 -7.65 0 0 0 
-15.75 -37.65 -7.35 0 0 0 
-15.45 -37.65 -8.25 0 0 0 
-15.45 -37.65 -7.95 0 0 0 
-15.45 -37.65 -7.65 0 0 0 
-15.15 -37.65 -7.65 0 0 0 
-15.45 -37.65 -7.35 0 0 0 
-15.15 -37.65 -7.35 0 0 0 
-15.45 -36.15 -8.25 0 0 0 
-15.15 -36.45 -7.95 0 0 0 
-15.45 -36.45 -7.65 0 0 0 
-15.15 -36.45 -7.35 0 0 0 
-14.85 -36.45 -7.65 0 0 0 
-14.85 -34.65 -9.45 0 0 0 
-14.55 -34.65 -9.45 0 0 0 
-14.85 -34.65 -9.15 0 0 0 
-15.15 -34.05 -9.15 0 0 0 
-14.85 -34.05 -9.45 0 0 0 
-14.55 -33.75 -9.45 0 0 0 
-14.85 -34.05 -9.15 0 0 0 
-14.85 -33.75 -9.15 0 0 0 
-14.55 -34.65 -8.85 0 0 0 
-14.85 -34.35 -8.85 0 0 0 
-14.85 -34.65 -8.55 0 0 0 
-14.85 -34.35 -8.55 0 0 0 
-14.85 -34.05 -8.85 0 0 0 
-14.85 -34.05 -8.55 0 0 0 
-14.55 -34.05 -8.55 0 0 0 
-14.85 -34.65 -8.25 0 0 0 
-14.85 -34.35 -8.25 0 0 0 
-14.85 -34.05 -8.25 0 0 0 
-14.55 -34.05 -8.25 0 0 0 
-14.85 -34.05 -7.95 0 0 0 
-14.85 -34.05 -7.65 0 0 0 
-15.75 -37.65 -7.05 0 0 0 
-15.15 -37.65 -6.75 0 0 0 
-14.85 -36.45 -6.45 0 0 0 
-14.55 -36.45 -6.45 0 0 0 
-14.85 -36.45 -6.15 0 0 0 
-14.85 -36.75 -5.85 0 0 0 
-14.85 -36.45 -5.85 0 0 0 
-14.25 -36.45 -8.55 0 0 0 
-14.25 -36.45 -8.25 0 0 0 
-14.25 -36.45 -7.95 0 0 0 
-14.25 -36.45 -7.65 0 0 0 
-13.65 -36.45 -7.35 0 0 0 
-14.25 -34.35 -7.35 0 0 0 
-13.95 -37.95 -6.45 0 0 0 
-13.95 -37.65 -6.45 0 0 0 
-13.95 -37.65 -6.15 0 0 0 
-13.95 -36.45 -6.75 0 0 0 
-13.35 -36.45 -7.05 0 0 0 
-13.95 -36.45 -6.45 0 0 0 
-14.25 -37.95 -5.85 0 0 0 
-13.95 -37.95 -5.85 0 0 0 
-14.25 -38.25 -5.25 0 0 0 
-13.95 -36.45 -5.85 0 0 0 
-13.35 -34.95 -6.75 0 0 0 
-13.35 -34.95 -6.15 0 0 0 
-13.05 -34.95 -6.45 0 0 0 
-13.05 -34.95 -6.15 0 0 0 
-14.25 -34.35 -7.05 0 0 0 
-13.95 -34.35 -7.05 0 0 0 
-13.95 -34.35 -6.75 0 0 0 
-14.25 -34.35 -6.45 0 0 0 
-13.95 -34.35 -6.45 0 0 0 
-14.25 -34.35 -6.15 0 0 0 
-12.75 -34.65 -7.05 0 0 0 
-12.75 -34.65 -6.75 0 0 0 
-12.75 -34.65 -6.45 0 0 0 
-12.15 -34.65 -6.15 0 0 0 
-13.65 -34.95 -5.85 0 0 0 
-13.65 -34.95 -5.55 0 0 0 
-13.35 -34.95 -5.25 0 0 0 
-13.35 -34.95 -4.95 0 0 0 
-13.95 -34.35 -5.85 0 0 0 
-14.25 -34.65 -5.55 0 0 0 
-14.25 -34.35 -5.55 0 0 0 
-12.45 -34.65 -5.55 0 0 0 
-13.95 -31.35 -9.15 0 0 0 
-13.65 -31.35 -9.45 0 0 0 
-13.35 -31.35 -9.45 0 0 0 
-13.65 -31.35 -9.15 0 0 0 
-13.65 -31.65 -8.85 0 0 0 
-13.65 -31.35 -8.85 0 0 0 
-13.65 -31.65 -8.55 0 0 0 
-13.65 -31.35 -8.55 0 0 0 
-13.95 -31.65 -8.25 0 0 0 
-13.95 -31.65 -7.95 0 0 0 
-13.65 -31.35 -8.25 0 0 0 
-13.65 -31.35 -7.95 0 0 0 
-13.95 -31.65 -7.65 0 0 0 
-13.95 -31.65 -7.35 0 0 0 
-13.65 -31.65 -7.65 0 0 0 
-13.65 -31.35 -7.65 0 0 0 
-13.35 -31.35 -7.65 0 0 0 
-13.65 -31.65 -7.35 0 0 0 
-13.35 -31.35 -7.35 0 0 0 
-13.35 -29.25 -8.85 0 0 0 
-13.35 -29.25 -8.55 0 0 0 
-13.05 -29.25 -9.45 0 0 0 
-12.75 -29.25 -9.45 0 0 0 
-13.05 -29.25 -9.15 0 0 0 
-13.35 -29.55 -8.25 0 0 0 
-13.35 -29.55 -7.95 0 0 0 
-13.05 -29.55 -7.95 0 0 0 
-13.05 -29.55 -7.65 0 0 0 
-12.75 -29.55 -7.35 0 0 0 
-12.75 -28.95 -7.35 0 0 0 
-13.95 -31.65 -7.05 0 0 0 
-12.15 -31.65 -6.45 0 0 0 
-10.95 -31.95 -6.45 0 0 0 
-10.95 -31.95 -6.15 0 0 0 
-11.55 -31.65 -6.15 0 0 0 
-10.95 -31.95 -5.85 0 0 0 
-10.95 -31.95 -5.55 0 0 0 
-11.25 -31.95 -5.25 0 0 0 
-12.75 -29.55 -7.05 0 0 0 
-13.05 -29.55 -6.75 0 0 0 
-12.75 -29.55 -6.75 0 0 0 
-12.75 -28.95 -7.05 0 0 0 
-12.75 -28.95 -6.75 0 0 0 
-13.05 -29.55 -6.45 0 0 0 
-12.45 -29.85 -6.15 0 0 0 
-12.75 -28.95 -6.45 0 0 0 
-12.45 -28.95 -6.45 0 0 0 
-11.85 -28.95 -6.15 0 0 0 
-11.85 -29.25 -5.85 0 0 0 
-12.15 -36.75 -4.05 0 0 0 
-11.85 -37.05 -3.45 0 0 0 
-11.55 -37.05 -3.45 0 0 0 
-13.95 -34.95 -4.35 0 0 0 
-13.35 -34.95 -4.65 0 0 0 
-13.35 -34.95 -4.35 0 0 0 
-13.95 -34.95 -4.05 0 0 0 
-13.95 -34.95 -3.75 0 0 0 
-13.95 -34.95 -3.45 0 0 0 
-12.75 -35.25 -2.55 0 0 0 
-12.15 -32.25 -3.75 0 0 0 
-11.85 -31.95 -4.65 0 0 0 
-11.85 -31.95 -4.35 0 0 0 
-11.85 -31.95 -4.05 0 0 0 
-11.85 -32.25 -3.45 0 0 0 
-11.55 -32.25 -3.15 0 0 0 
-11.55 -32.25 -2.85 0 0 0 
-11.85 -32.25 -2.55 0 0 0 
-12.15 -32.25 -1.95 0 0 0 
-12.15 -32.25 -1.65 0 0 0 
-11.85 -32.25 -2.25 0 0 0 
-1.95 -37.65 -9.45 0 0 0 
-1.65 -32.25 -8.25 0 0 0 
-1.95 -32.55 -6.75 0 0 0 
-1.95 -32.55 -6.45 0 0 0 
-1.95 -32.55 -6.15 0 0 0 
-3.75 -30.45 -3.75 0 0 0 
-12.75 -28.65 -9.45 0 0 0 
-12.75 -28.35 -9.45 0 0 0 
-13.05 -28.65 -9.15 0 0 0 
-12.45 -28.35 -9.45 0 0 0 
-12.45 -28.35 -9.15 0 0 0 
-13.05 -28.65 -8.85 0 0 0 
-13.05 -28.35 -8.85 0 0 0 
-13.05 -28.65 -8.55 0 0 0 
-12.75 -28.35 -8.55 0 0 0 
-13.05 -28.65 -8.25 0 0 0 
-12.75 -28.65 -8.25 0 0 0 
-13.05 -28.35 -8.25 0 0 0 
-12.75 -28.65 -7.95 0 0 0 
-12.75 -28.35 -7.95 0 0 0 
-12.75 -28.65 -7.65 0 0 0 
-12.75 -28.35 -7.65 0 0 0 
-12.75 -28.65 -7.35 0 0 0 
-12.75 -28.35 -7.35 0 0 0 
-12.15 -28.35 -7.35 0 0 0 
-12.15 -26.55 -8.25 0 0 0 
-12.15 -26.55 -7.95 0 0 0 
-12.15 -26.55 -7.65 0 0 0 
-12.15 -26.85 -7.35 0 0 0 
-11.85 -26.55 -9.45 0 0 0 
-11.85 -26.55 -9.15 0 0 0 
-11.85 -26.55 -8.85 0 0 0 
-11.85 -26.55 -8.55 0 0 0 
-12.15 -26.25 -9.45 0 0 0 
-12.15 -26.25 -9.15 0 0 0 
-12.15 -26.25 -8.85 0 0 0 
-12.15 -26.25 -8.55 0 0 0 
-11.85 -26.25 -8.55 0 0 0 
-11.55 -24.75 -9.45 0 0 0 
-11.55 -24.75 -9.15 0 0 0 
-11.25 -24.75 -9.15 0 0 0 
-11.25 -24.45 -9.45 0 0 0 
-11.25 -24.15 -9.45 0 0 0 
-11.25 -24.15 -9.15 0 0 0 
-11.55 -24.75 -8.85 0 0 0 
-11.55 -24.75 -8.55 0 0 0 
-11.25 -24.75 -8.85 0 0 0 
-11.25 -24.75 -8.55 0 0 0 
-11.55 -24.45 -8.85 0 0 0 
-11.55 -24.15 -8.85 0 0 0 
-11.85 -26.25 -8.25 0 0 0 
-11.85 -26.25 -7.95 0 0 0 
-11.55 -24.75 -8.25 0 0 0 
-11.55 -24.75 -7.95 0 0 0 
-11.55 -24.75 -7.65 0 0 0 
-12.15 -28.65 -7.05 0 0 0 
-12.15 -28.35 -7.05 0 0 0 
-12.15 -28.65 -6.75 0 0 0 
-12.15 -26.85 -7.05 0 0 0 
-11.85 -26.85 -7.05 0 0 0 
-11.85 -26.85 -6.75 0 0 0 
-11.85 -26.85 -6.45 0 0 0 
-11.25 -26.85 -6.45 0 0 0 
-11.25 -26.85 -6.15 0 0 0 
-10.95 -27.15 -5.85 0 0 0 
-10.95 -27.15 -5.55 0 0 0 
-10.95 -23.25 -8.55 0 0 0 
-10.35 -22.95 -9.45 0 0 0 
-10.35 -23.25 -9.15 0 0 0 
-10.65 -23.25 -8.85 0 0 0 
-10.65 -23.25 -8.55 0 0 0 
-10.35 -21.75 -9.45 0 0 0 
-10.35 -21.75 -9.15 0 0 0 
-10.95 -23.25 -8.25 0 0 0 
-4.05 -25.35 -7.35 0 0 0 
-3.75 -25.65 -7.05 0 0 0 
-4.05 -25.35 -7.05 0 0 0 
-3.45 -25.65 -6.75 0 0 0 
-2.55 -26.25 -6.15 0 0 0 
-2.55 -25.95 -6.15 0 0 0 
-3.45 -25.65 -6.15 0 0 0 
-1.35 -22.95 -6.15 0 0 0 
-1.05 -22.95 -6.45 0 0 0 
-1.35 -22.95 -5.85 0 0 0 
-1.05 -22.95 -5.85 0 0 0 
-1.05 -22.95 -5.55 0 0 0 
-7.95 -19.05 -13.05 0 0 0 
2.25 -99.45 -42.75 0 0 0 
1.95 -99.15 -42.45 0 0 0 
1.95 -99.15 -42.15 0 0 0 
1.65 -98.85 -42.15 0 0 0 
1.35 -98.55 -42.15 0 0 0 
1.65 -98.55 -42.15 0 0 0 
1.65 -98.85 -41.55 0 0 0 
1.35 -98.55 -41.55 0 0 0 
1.35 -98.25 -41.85 0 0 0 
7.65 -94.05 -43.05 0 0 0 
7.65 -93.75 -43.05 0 0 0 
7.65 -93.75 -42.75 0 0 0 
7.65 -94.05 -42.45 0 0 0 
7.65 -93.75 -42.45 0 0 0 
7.35 -93.75 -42.15 0 0 0 
7.65 -94.05 -41.55 0 0 0 
7.35 -93.75 -41.55 0 0 0 
7.35 -93.75 -41.25 0 0 0 
7.05 -93.75 -38.85 0 0 0 
7.35 -94.05 -40.65 0 0 0 
7.35 -93.75 -40.65 0 0 0 
7.35 -94.05 -40.05 0 0 0 
7.35 -93.75 -40.05 0 0 0 
7.35 -94.05 -39.75 0 0 0 
7.35 -94.05 -38.85 0 0 0 
10.65 -91.95 -42.15 0 0 0 
10.65 -91.95 -41.85 0 0 0 
10.65 -92.25 -41.55 0 0 0 
10.35 -91.95 -41.25 0 0 0 
10.65 -91.95 -41.25 0 0 0 
10.35 -91.95 -40.95 0 0 0 
10.35 -91.95 -40.65 0 0 0 
10.35 -91.65 -40.65 0 0 0 
10.35 -91.95 -40.05 0 0 0 
10.35 -91.95 -39.75 0 0 0 
10.35 -91.95 -39.45 0 0 0 
10.05 -91.65 -39.45 0 0 0 
40.05 -84.45 -42.75 0 0 0 
40.05 -84.45 -42.45 0 0 0 
40.35 -84.45 -42.45 0 0 0 
40.05 -85.65 -40.65 0 0 0 
40.05 -85.65 -40.35 0 0 0 
40.05 -85.65 -40.05 0 0 0 
40.05 -85.35 -40.05 0 0 0 
39.45 -84.75 -40.05 0 0 0 
39.45 -84.75 -39.75 0 0 0 
39.75 -84.75 -40.65 0 0 0 
39.75 -84.75 -40.35 0 0 0 
4.05 -126.45 -12.15 0 0 0 
4.05 -126.15 -12.15 0 0 0 
4.05 -126.15 -11.85 0 0 0 
0.15 -115.35 -14.25 0 0 0 
0.45 -115.35 -14.25 0 0 0 
0.15 -115.35 -13.35 0 0 0 
0.15 -115.35 -12.75 0 0 0 
0.15 -115.35 -12.45 0 0 0 
0.15 -115.35 -12.15 0 0 0 
0.45 -115.35 -12.15 0 0 0 
0.15 -115.35 -11.55 0 0 0 
0.45 -115.35 -11.55 0 0 0 
0.15 -115.35 -11.25 0 0 0 
0.15 -115.35 -10.95 0 0 0 
0.75 -116.25 -10.05 0 0 0 
0.75 -115.95 -10.05 0 0 0 
0.15 -115.35 -10.05 0 0 0 
0.45 -115.65 -9.75 0 0 0 
0.75 -115.95 -9.45 0 0 0 
0.75 -115.95 -9.15 0 0 0 
0.45 -115.65 -9.45 0 0 0 
0.15 -115.35 -9.45 0 0 0 
0.75 -115.95 -8.85 0 0 0 
0.75 -116.25 -8.25 0 0 0 
0.45 -115.65 -8.25 0 0 0 
0.15 -115.35 -8.25 0 0 0 
0.15 -115.65 -7.95 0 0 0 
0.45 -115.65 -7.95 0 0 0 
0.75 -116.25 -7.35 0 0 0 
0.75 -115.95 -7.35 0 0 0 
0.15 -115.65 -7.65 0 0 0 
0.45 -115.65 -7.65 0 0 0 
0.45 -115.95 -6.75 0 0 0 
0.75 -116.25 -7.05 0 0 0 
0.75 -116.25 -6.75 0 0 0 
0.75 -115.95 -6.75 0 0 0 
0.45 -115.95 -6.45 0 0 0 
0.45 -115.95 -6.15 0 0 0 
0.75 -115.95 -6.45 0 0 0 
0.75 -115.95 -6.15 0 0 0 
0.45 -115.65 -6.15 0 0 0 
0.45 -115.95 -5.85 0 0 0 
0.45 -115.95 -5.55 0 0 0 
0.75 -115.95 -5.85 0 0 0 
0.75 -116.25 -5.55 0 0 0 
0.45 -115.65 -5.85 0 0 0 
0.45 -115.95 -5.25 0 0 0 
0.45 -115.95 -4.95 0 0 0 
0.15 -115.65 -5.25 0 0 0 
0.15 -115.65 -4.95 0 0 0 
0.45 -115.95 -4.35 0 0 0 
0.15 -115.65 -4.65 0 0 0 
0.45 -115.95 -4.05 0 0 0 
0.15 -115.65 -3.75 0 0 0 
0.15 -115.65 -3.45 0 0 0 
0.15 -115.65 -3.15 0 0 0 
0.15 -115.65 -2.85 0 0 0 
0.15 -115.65 -2.55 0 0 0 
0.15 -115.65 -2.25 0 0 0 
0.15 -115.95 -1.05 0 0 0 
0.15 -115.95 -0.75 0 0 0 
0.15 -115.65 -1.05 0 0 0 
1.65 -99.15 -36.75 0 0 0 
1.95 -99.75 -34.95 0 0 0 
1.95 -99.45 -34.95 0 0 0 
1.95 -99.75 -34.65 0 0 0 
1.95 -99.45 -34.65 0 0 0 
1.95 -99.45 -34.35 0 0 0 
1.65 -99.45 -34.05 0 0 0 
1.95 -99.45 -34.05 0 0 0 
1.95 -99.75 -33.45 0 0 0 
1.65 -99.45 -33.15 0 0 0 
1.95 -99.45 -33.45 0 0 0 
1.35 -99.15 -32.85 0 0 0 
1.65 -99.15 -32.85 0 0 0 
1.65 -99.15 -32.55 0 0 0 
1.65 -99.15 -32.25 0 0 0 
1.65 -108.45 -20.55 0 0 0 
1.65 -108.45 -20.25 0 0 0 
1.65 -108.45 -19.95 0 0 0 
1.35 -108.45 -19.65 0 0 0 
1.65 -108.45 -19.35 0 0 0 
1.05 -107.85 -19.95 0 0 0 
3.15 -101.25 -28.35 0 0 0 
3.15 -101.55 -28.05 0 0 0 
3.15 -101.55 -27.75 0 0 0 
2.85 -101.25 -27.75 0 0 0 
3.15 -101.25 -27.75 0 0 0 
4.05 -102.75 -22.65 0 0 0 
3.75 -102.45 -22.65 0 0 0 
3.75 -102.45 -22.35 0 0 0 
3.75 -102.75 -21.75 0 0 0 
3.75 -102.45 -22.05 0 0 0 
4.65 -103.65 -19.95 0 0 0 
4.35 -103.35 -19.95 0 0 0 
4.35 -103.35 -19.65 0 0 0 
3.75 -102.45 -21.45 0 0 0 
4.05 -102.75 -19.95 0 0 0 
4.05 -103.05 -19.35 0 0 0 
8.25 -97.35 -23.55 0 0 0 
7.95 -97.05 -23.85 0 0 0 
7.95 -97.05 -23.55 0 0 0 
7.95 -97.05 -23.25 0 0 0 
7.95 -97.05 -22.95 0 0 0 
8.25 -97.65 -22.35 0 0 0 
7.95 -97.35 -22.35 0 0 0 
8.25 -97.65 -21.75 0 0 0 
7.95 -97.05 -22.65 0 0 0 
7.95 -97.05 -22.35 0 0 0 
8.85 -98.55 -19.65 0 0 0 
8.55 -97.95 -20.85 0 0 0 
8.55 -98.25 -20.55 0 0 0 
8.25 -97.95 -20.25 0 0 0 
8.25 -98.25 -19.65 0 0 0 
8.25 -97.95 -19.35 0 0 0 
8.55 -98.25 -19.95 0 0 0 
8.55 -98.25 -19.65 0 0 0 
7.05 -93.75 -38.25 0 0 0 
7.05 -94.05 -36.45 0 0 0 
6.75 -94.05 -34.65 0 0 0 
7.05 -94.35 -34.05 0 0 0 
6.75 -94.05 -33.75 0 0 0 
6.75 -94.35 -33.45 0 0 0 
7.05 -94.35 -33.45 0 0 0 
6.75 -94.05 -33.15 0 0 0 
7.05 -94.65 -31.65 0 0 0 
7.35 -95.55 -29.55 0 0 0 
7.35 -95.25 -29.25 0 0 0 
10.35 -91.95 -37.95 0 0 0 
10.05 -91.95 -37.65 0 0 0 
10.35 -91.95 -37.65 0 0 0 
10.05 -91.95 -37.05 0 0 0 
10.35 -91.95 -37.05 0 0 0 
10.05 -91.95 -36.15 0 0 0 
10.35 -92.25 -36.45 0 0 0 
10.35 -91.95 -36.45 0 0 0 
10.05 -91.95 -35.55 0 0 0 
10.05 -91.95 -35.25 0 0 0 
10.35 -92.25 -34.35 0 0 0 
10.05 -92.25 -34.05 0 0 0 
10.05 -91.95 -34.05 0 0 0 
11.85 -90.75 -35.25 0 0 0 
11.85 -90.45 -35.25 0 0 0 
11.85 -90.45 -34.95 0 0 0 
11.85 -90.45 -34.65 0 0 0 
11.85 -90.45 -34.35 0 0 0 
11.85 -90.45 -34.05 0 0 0 
11.85 -90.45 -33.75 0 0 0 
12.15 -90.75 -35.55 0 0 0 
12.15 -90.75 -35.25 0 0 0 
18.45 -88.95 -34.35 0 0 0 
18.15 -88.65 -34.35 0 0 0 
18.45 -88.65 -34.35 0 0 0 
18.45 -88.65 -34.05 0 0 0 
18.15 -88.35 -34.05 0 0 0 
18.15 -88.35 -33.75 0 0 0 
10.05 -92.25 -33.45 0 0 0 
9.75 -91.95 -33.45 0 0 0 
10.05 -92.25 -33.15 0 0 0 
10.05 -92.25 -32.25 0 0 0 
10.05 -92.25 -31.95 0 0 0 
9.75 -92.25 -30.75 0 0 0 
10.35 -92.85 -29.25 0 0 0 
11.85 -90.45 -33.45 0 0 0 
12.15 -90.75 -31.65 0 0 0 
11.85 -90.45 -30.75 0 0 0 
11.85 -90.45 -30.45 0 0 0 
11.85 -90.45 -30.15 0 0 0 
12.15 -91.05 -31.05 0 0 0 
12.15 -90.75 -31.05 0 0 0 
12.15 -90.75 -30.75 0 0 0 
12.15 -90.75 -30.15 0 0 0 
18.15 -88.95 -30.75 0 0 0 
18.15 -88.95 -30.45 0 0 0 
18.15 -88.95 -29.55 0 0 0 
18.45 -89.25 -28.95 0 0 0 
18.15 -88.95 -28.95 0 0 0 
17.85 -88.65 -30.45 0 0 0 
18.15 -88.65 -30.45 0 0 0 
18.15 -88.65 -30.15 0 0 0 
17.85 -88.65 -29.55 0 0 0 
18.15 -88.65 -29.85 0 0 0 
10.35 -93.15 -28.65 0 0 0 
10.35 -93.15 -28.35 0 0 0 
10.35 -92.85 -28.35 0 0 0 
10.35 -93.15 -27.75 0 0 0 
10.35 -93.15 -27.45 0 0 0 
10.65 -93.45 -27.15 0 0 0 
10.35 -93.15 -27.15 0 0 0 
12.45 -91.35 -28.35 0 0 0 
12.75 -91.35 -28.35 0 0 0 
12.45 -91.05 -28.35 0 0 0 
12.45 -91.05 -27.75 0 0 0 
17.85 -88.95 -28.65 0 0 0 
18.15 -89.25 -28.65 0 0 0 
18.15 -88.95 -28.65 0 0 0 
17.85 -88.65 -28.35 0 0 0 
17.85 -88.65 -28.05 0 0 0 
17.55 -88.35 -28.05 0 0 0 
17.55 -88.35 -27.75 0 0 0 
11.25 -94.35 -23.25 0 0 0 
10.95 -94.35 -22.95 0 0 0 
10.95 -94.35 -22.65 0 0 0 
11.25 -94.65 -22.35 0 0 0 
10.95 -94.35 -22.35 0 0 0 
11.25 -94.65 -22.05 0 0 0 
10.95 -94.65 -21.75 0 0 0 
11.25 -94.65 -21.75 0 0 0 
13.35 -91.95 -22.95 0 0 0 
13.35 -92.25 -22.65 0 0 0 
13.35 -91.95 -22.65 0 0 0 
13.65 -92.25 -22.35 0 0 0 
13.65 -92.25 -22.05 0 0 0 
13.35 -92.25 -21.75 0 0 0 
11.55 -94.95 -21.15 0 0 0 
11.25 -94.95 -20.85 0 0 0 
11.25 -94.95 -20.55 0 0 0 
11.25 -94.65 -21.45 0 0 0 
11.25 -94.95 -20.25 0 0 0 
11.25 -94.95 -19.65 0 0 0 
11.25 -94.95 -19.35 0 0 0 
11.55 -95.25 -19.65 0 0 0 
11.55 -95.25 -19.35 0 0 0 
11.25 -94.65 -19.95 0 0 0 
13.65 -92.55 -21.45 0 0 0 
13.65 -92.55 -21.15 0 0 0 
13.65 -92.55 -20.55 0 0 0 
13.65 -92.25 -21.15 0 0 0 
13.65 -92.25 -20.85 0 0 0 
13.65 -92.25 -20.55 0 0 0 
13.65 -92.55 -20.25 0 0 0 
13.95 -92.55 -20.25 0 0 0 
13.95 -92.55 -19.95 0 0 0 
13.95 -92.55 -19.65 0 0 0 
13.95 -92.85 -19.35 0 0 0 
14.25 -92.85 -19.35 0 0 0 
18.45 -90.15 -21.75 0 0 0 
18.15 -89.85 -22.35 0 0 0 
18.15 -89.85 -22.05 0 0 0 
18.45 -90.15 -21.45 0 0 0 
18.45 -89.85 -21.45 0 0 0 
18.15 -89.55 -21.45 0 0 0 
18.15 -89.85 -21.15 0 0 0 
18.15 -89.55 -21.15 0 0 0 
18.15 -89.55 -20.85 0 0 0 
18.45 -90.15 -20.25 0 0 0 
18.45 -90.45 -19.95 0 0 0 
18.45 -90.15 -19.95 0 0 0 
18.45 -90.15 -19.65 0 0 0 
18.45 -90.15 -19.35 0 0 0 
18.75 -90.45 -19.65 0 0 0 
23.55 -87.15 -30.75 0 0 0 
23.55 -87.15 -30.45 0 0 0 
23.25 -86.85 -30.15 0 0 0 
23.25 -86.55 -30.15 0 0 0 
23.55 -86.85 -30.45 0 0 0 
23.55 -86.85 -30.15 0 0 0 
33.45 -86.85 -32.25 0 0 0 
33.45 -86.85 -31.95 0 0 0 
33.15 -86.55 -30.75 0 0 0 
33.75 -87.15 -31.95 0 0 0 
33.15 -86.25 -30.75 0 0 0 
32.85 -85.95 -30.45 0 0 0 
33.15 -86.25 -30.45 0 0 0 
32.85 -85.95 -29.85 0 0 0 
32.55 -85.65 -29.85 0 0 0 
23.55 -87.15 -28.05 0 0 0 
23.55 -87.15 -27.75 0 0 0 
23.55 -87.15 -27.15 0 0 0 
23.55 -86.85 -27.45 0 0 0 
23.55 -86.85 -27.15 0 0 0 
23.85 -87.75 -25.05 0 0 0 
23.85 -87.75 -24.75 0 0 0 
23.85 -87.75 -24.15 0 0 0 
23.85 -87.45 -24.75 0 0 0 
24.15 -87.75 -25.65 0 0 0 
24.15 -87.75 -25.35 0 0 0 
24.15 -87.75 -25.05 0 0 0 
24.15 -87.75 -24.75 0 0 0 
23.85 -87.75 -23.85 0 0 0 
23.55 -87.45 -23.85 0 0 0 
23.85 -87.45 -23.85 0 0 0 
23.55 -87.45 -23.55 0 0 0 
23.55 -87.15 -23.55 0 0 0 
23.55 -87.45 -23.25 0 0 0 
24.75 -88.95 -19.95 0 0 0 
24.45 -88.35 -19.95 0 0 0 
24.45 -88.35 -19.65 0 0 0 
24.45 -88.65 -19.35 0 0 0 
33.15 -87.15 -24.75 0 0 0 
32.85 -86.85 -25.05 0 0 0 
32.85 -86.85 -24.75 0 0 0 
32.55 -86.55 -24.75 0 0 0 
32.85 -86.55 -24.75 0 0 0 
33.15 -87.75 -23.25 0 0 0 
33.15 -87.75 -22.95 0 0 0 
32.85 -87.45 -22.95 0 0 0 
32.85 -87.15 -22.95 0 0 0 
32.85 -86.85 -23.25 0 0 0 
32.55 -86.55 -23.25 0 0 0 
32.85 -86.85 -22.95 0 0 0 
32.55 -86.55 -22.95 0 0 0 
33.45 -88.05 -22.65 0 0 0 
32.55 -86.55 -22.65 0 0 0 
32.55 -86.55 -22.35 0 0 0 
32.85 -86.25 -28.05 0 0 0 
32.55 -85.95 -27.45 0 0 0 
0.15 -115.05 -14.85 0 0 0 
2.25 -109.35 -18.15 0 0 0 
1.95 -109.05 -18.45 0 0 0 
1.95 -108.75 -18.15 0 0 0 
2.25 -109.05 -17.55 0 0 0 
1.95 -109.05 -16.95 0 0 0 
2.55 -109.65 -17.55 0 0 0 
2.55 -109.65 -17.25 0 0 0 
2.55 -109.65 -16.95 0 0 0 
1.95 -108.75 -16.35 0 0 0 
2.25 -109.05 -16.05 0 0 0 
1.95 -109.05 -15.75 0 0 0 
2.25 -109.35 -15.45 0 0 0 
1.65 -108.75 -15.45 0 0 0 
1.95 -109.05 -15.45 0 0 0 
2.55 -109.95 -16.65 0 0 0 
2.55 -109.65 -16.65 0 0 0 
2.55 -109.95 -16.05 0 0 0 
2.85 -109.95 -16.05 0 0 0 
2.55 -109.65 -16.05 0 0 0 
2.55 -109.95 -15.45 0 0 0 
2.55 -109.65 -15.45 0 0 0 
0.15 -115.05 -13.05 0 0 0 
3.15 -110.55 -12.75 0 0 0 
3.15 -110.55 -12.45 0 0 0 
3.45 -110.85 -12.15 0 0 0 
0.15 -115.05 -10.95 0 0 0 
0.15 -115.05 -10.65 0 0 0 
2.85 -110.55 -11.85 0 0 0 
3.15 -110.55 -11.85 0 0 0 
3.15 -110.55 -11.55 0 0 0 
3.15 -110.55 -11.25 0 0 0 
3.15 -110.85 -10.95 0 0 0 
3.15 -110.55 -10.95 0 0 0 
2.85 -110.55 -10.65 0 0 0 
2.85 -110.55 -10.35 0 0 0 
3.15 -110.55 -10.65 0 0 0 
2.85 -110.55 -10.05 0 0 0 
3.15 -110.55 -10.05 0 0 0 
2.25 -109.35 -13.95 0 0 0 
2.25 -109.65 -13.65 0 0 0 
1.95 -109.35 -13.65 0 0 0 
2.25 -109.35 -13.65 0 0 0 
2.25 -109.65 -13.35 0 0 0 
2.25 -109.35 -13.35 0 0 0 
2.85 -110.25 -14.25 0 0 0 
2.85 -110.25 -13.95 0 0 0 
2.55 -109.65 -13.95 0 0 0 
2.85 -110.25 -13.65 0 0 0 
2.55 -109.95 -13.05 0 0 0 
2.55 -109.95 -11.25 0 0 0 
2.85 -109.95 -11.25 0 0 0 
2.85 -110.25 -10.65 0 0 0 
2.85 -110.25 -10.35 0 0 0 
2.85 -110.25 -10.05 0 0 0 
5.85 -105.75 -11.25 0 0 0 
5.85 -105.75 -10.65 0 0 0 
5.85 -105.75 -10.35 0 0 0 
4.65 -103.65 -18.75 0 0 0 
4.65 -103.95 -18.15 0 0 0 
4.35 -103.35 -18.15 0 0 0 
4.65 -103.95 -17.85 0 0 0 
4.65 -103.95 -17.55 0 0 0 
4.65 -103.65 -17.85 0 0 0 
4.65 -103.95 -16.65 0 0 0 
4.95 -103.95 -18.75 0 0 0 
4.95 -103.95 -17.25 0 0 0 
4.95 -104.25 -16.95 0 0 0 
4.95 -104.55 -16.05 0 0 0 
4.95 -103.95 -16.65 0 0 0 
4.95 -104.25 -16.05 0 0 0 
4.95 -104.25 -15.75 0 0 0 
5.25 -104.55 -14.85 0 0 0 
5.25 -104.55 -14.55 0 0 0 
4.95 -104.25 -15.45 0 0 0 
4.95 -104.25 -15.15 0 0 0 
8.55 -98.55 -18.45 0 0 0 
8.55 -98.55 -17.85 0 0 0 
8.55 -98.55 -17.55 0 0 0 
8.55 -98.55 -17.25 0 0 0 
8.85 -98.85 -16.95 0 0 0 
8.25 -98.25 -18.45 0 0 0 
8.25 -98.25 -18.15 0 0 0 
8.55 -98.25 -18.75 0 0 0 
8.25 -98.25 -17.25 0 0 0 
8.85 -99.15 -16.65 0 0 0 
8.55 -98.85 -16.65 0 0 0 
8.85 -99.45 -16.05 0 0 0 
8.85 -99.15 -16.05 0 0 0 
8.85 -99.15 -15.75 0 0 0 
9.15 -99.75 -15.45 0 0 0 
8.85 -99.45 -15.15 0 0 0 
8.55 -99.15 -15.15 0 0 0 
9.15 -99.45 -15.15 0 0 0 
8.55 -99.15 -14.85 0 0 0 
8.85 -99.45 -14.55 0 0 0 
5.85 -105.45 -14.25 0 0 0 
5.55 -105.15 -13.95 0 0 0 
5.85 -105.15 -13.95 0 0 0 
4.95 -104.55 -13.95 0 0 0 
5.25 -104.55 -13.95 0 0 0 
5.55 -105.15 -13.65 0 0 0 
5.25 -104.85 -13.65 0 0 0 
5.25 -104.85 -13.35 0 0 0 
5.55 -105.15 -13.05 0 0 0 
5.25 -104.85 -13.05 0 0 0 
4.95 -104.55 -13.05 0 0 0 
5.25 -104.85 -12.75 0 0 0 
5.25 -105.15 -12.15 0 0 0 
5.55 -105.15 -12.15 0 0 0 
5.25 -104.85 -12.45 0 0 0 
5.25 -104.85 -12.15 0 0 0 
5.85 -105.45 -11.85 0 0 0 
5.55 -105.15 -11.55 0 0 0 
5.25 -104.85 -11.85 0 0 0 
5.85 -105.45 -11.25 0 0 0 
5.55 -105.45 -10.95 0 0 0 
5.85 -105.45 -10.65 0 0 0 
9.45 -100.05 -14.25 0 0 0 
9.15 -99.75 -14.25 0 0 0 
9.15 -99.75 -13.95 0 0 0 
8.85 -99.75 -13.65 0 0 0 
8.85 -99.75 -13.35 0 0 0 
9.15 -99.75 -13.65 0 0 0 
8.85 -99.45 -14.25 0 0 0 
8.85 -99.45 -13.35 0 0 0 
9.15 -100.05 -13.05 0 0 0 
9.45 -100.35 -12.45 0 0 0 
9.15 -100.35 -12.15 0 0 0 
8.85 -99.75 -12.45 0 0 0 
8.85 -99.75 -12.15 0 0 0 
8.55 -99.45 -13.05 0 0 0 
8.85 -99.45 -13.05 0 0 0 
8.85 -99.45 -12.15 0 0 0 
9.15 -100.35 -11.55 0 0 0 
8.85 -100.05 -11.55 0 0 0 
9.15 -100.05 -11.85 0 0 0 
9.15 -100.05 -11.55 0 0 0 
9.15 -100.35 -10.95 0 0 0 
9.15 -100.05 -11.25 0 0 0 
8.85 -100.35 -9.75 0 0 0 
9.15 -100.35 -10.05 0 0 0 
9.45 -100.65 -9.75 0 0 0 
8.85 -100.05 -9.75 0 0 0 
11.85 -96.15 -15.45 0 0 0 
11.85 -96.15 -15.15 0 0 0 
11.85 -96.15 -14.85 0 0 0 
11.85 -96.45 -14.55 0 0 0 
12.15 -96.45 -15.15 0 0 0 
12.15 -96.45 -14.85 0 0 0 
11.85 -96.45 -13.95 0 0 0 
12.15 -96.45 -14.25 0 0 0 
12.15 -96.75 -13.65 0 0 0 
12.45 -97.05 -13.35 0 0 0 
12.45 -96.75 -13.35 0 0 0 
12.45 -97.05 -13.05 0 0 0 
12.45 -97.05 -12.75 0 0 0 
12.45 -97.05 -12.45 0 0 0 
12.15 -97.05 -12.15 0 0 0 
12.45 -97.05 -12.15 0 0 0 
12.15 -97.05 -11.85 0 0 0 
12.45 -97.05 -11.85 0 0 0 
12.45 -97.05 -11.55 0 0 0 
12.45 -97.05 -11.25 0 0 0 
12.15 -97.05 -10.95 0 0 0 
12.45 -97.05 -10.95 0 0 0 
12.45 -97.35 -10.65 0 0 0 
12.15 -97.05 -10.65 0 0 0 
12.45 -97.05 -10.65 0 0 0 
12.45 -97.05 -10.35 0 0 0 
3.15 -110.85 -9.15 0 0 0 
3.45 -111.15 -8.85 0 0 0 
3.15 -110.85 -8.85 0 0 0 
3.45 -110.85 -8.85 0 0 0 
3.15 -110.55 -8.85 0 0 0 
3.15 -110.85 -8.55 0 0 0 
3.45 -110.85 -8.55 0 0 0 
3.45 -111.15 -7.95 0 0 0 
3.15 -110.85 -8.25 0 0 0 
3.45 -110.85 -7.95 0 0 0 
3.45 -111.15 -7.65 0 0 0 
3.45 -111.15 -7.35 0 0 0 
3.45 -110.85 -7.65 0 0 0 
3.15 -110.85 -7.35 0 0 0 
3.45 -111.15 -6.75 0 0 0 
3.15 -110.85 -7.05 0 0 0 
3.15 -110.85 -6.75 0 0 0 
3.45 -111.15 -6.45 0 0 0 
3.45 -111.15 -6.15 0 0 0 
2.85 -110.55 -6.45 0 0 0 
3.15 -110.85 -6.45 0 0 0 
3.75 -111.75 -5.25 0 0 0 
3.45 -111.45 -5.85 0 0 0 
2.85 -110.55 -5.85 0 0 0 
3.15 -110.85 -5.85 0 0 0 
3.15 -110.85 -5.55 0 0 0 
3.45 -111.15 -5.25 0 0 0 
3.75 -111.45 -4.95 0 0 0 
2.85 -110.25 -8.25 0 0 0 
2.85 -110.25 -6.45 0 0 0 
5.85 -105.75 -9.45 0 0 0 
5.85 -105.75 -9.15 0 0 0 
5.85 -105.75 -8.85 0 0 0 
5.85 -105.75 -8.55 0 0 0 
6.15 -106.05 -9.45 0 0 0 
6.15 -106.05 -9.15 0 0 0 
5.85 -105.75 -8.25 0 0 0 
5.85 -106.05 -7.95 0 0 0 
5.85 -105.75 -7.95 0 0 0 
5.85 -105.75 -7.65 0 0 0 
6.15 -106.35 -7.35 0 0 0 
6.15 -106.05 -7.65 0 0 0 
6.15 -106.05 -7.35 0 0 0 
5.85 -106.05 -6.75 0 0 0 
5.85 -106.05 -6.45 0 0 0 
6.15 -106.05 -7.05 0 0 0 
6.15 -106.05 -6.75 0 0 0 
4.05 -111.75 -4.65 0 0 0 
3.75 -111.75 -4.05 0 0 0 
3.45 -111.15 -4.65 0 0 0 
3.45 -111.15 -4.35 0 0 0 
3.15 -110.85 -4.65 0 0 0 
3.45 -111.45 -3.75 0 0 0 
3.45 -111.15 -3.75 0 0 0 
3.75 -111.45 -4.05 0 0 0 
3.75 -111.45 -3.75 0 0 0 
3.45 -111.15 -3.45 0 0 0 
3.45 -111.45 -3.15 0 0 0 
3.15 -111.15 -3.15 0 0 0 
3.15 -110.85 -3.45 0 0 0 
3.15 -110.85 -3.15 0 0 0 
3.45 -111.45 -2.85 0 0 0 
3.15 -111.15 -2.85 0 0 0 
3.45 -111.45 -2.55 0 0 0 
3.15 -111.15 -2.55 0 0 0 
3.45 -111.45 -2.25 0 0 0 
3.45 -111.15 -2.25 0 0 0 
3.45 -111.45 -1.95 0 0 0 
3.15 -111.15 -1.95 0 0 0 
2.85 -110.85 -2.25 0 0 0 
3.45 -111.45 -1.65 0 0 0 
3.15 -111.15 -1.65 0 0 0 
3.45 -111.45 -1.35 0 0 0 
2.85 -110.85 -1.65 0 0 0 
3.75 -111.45 -1.65 0 0 0 
3.75 -111.45 -1.35 0 0 0 
3.75 -111.75 -1.05 0 0 0 
3.75 -111.75 -0.75 0 0 0 
3.45 -111.45 -1.05 0 0 0 
13.05 -106.65 -1.35 0 0 0 
4.65 -104.55 -6.45 0 0 0 
4.65 -104.55 -6.15 0 0 0 
4.35 -104.25 -6.15 0 0 0 
4.35 -103.95 -6.15 0 0 0 
4.65 -104.55 -5.85 0 0 0 
4.35 -103.95 -5.85 0 0 0 
3.75 -103.65 -4.95 0 0 0 
3.75 -103.35 -4.95 0 0 0 
3.45 -103.05 -5.25 0 0 0 
5.55 -105.45 -9.45 0 0 0 
5.55 -105.45 -8.85 0 0 0 
5.55 -105.45 -8.55 0 0 0 
5.55 -105.45 -7.95 0 0 0 
5.25 -105.15 -7.35 0 0 0 
5.55 -105.45 -7.35 0 0 0 
9.15 -100.65 -9.45 0 0 0 
9.15 -100.35 -9.45 0 0 0 
9.15 -100.65 -9.15 0 0 0 
8.85 -100.05 -9.15 0 0 0 
9.15 -100.65 -8.85 0 0 0 
9.15 -100.65 -8.55 0 0 0 
8.25 -99.75 -7.95 0 0 0 
8.25 -99.75 -7.65 0 0 0 
8.25 -99.75 -7.35 0 0 0 
8.85 -100.35 -8.25 0 0 0 
8.85 -100.35 -7.95 0 0 0 
9.15 -100.65 -7.95 0 0 0 
8.25 -99.45 -7.35 0 0 0 
7.05 -98.55 -5.55 0 0 0 
7.05 -98.55 -4.95 0 0 0 
8.25 -99.75 -6.45 0 0 0 
8.25 -99.45 -7.05 0 0 0 
7.95 -99.45 -6.75 0 0 0 
7.95 -99.15 -6.75 0 0 0 
7.35 -98.85 -5.25 0 0 0 
7.35 -98.85 -4.95 0 0 0 
6.75 -97.95 -6.45 0 0 0 
6.75 -98.25 -6.15 0 0 0 
6.45 -97.95 -5.55 0 0 0 
6.75 -98.25 -5.85 0 0 0 
7.05 -98.25 -5.85 0 0 0 
6.75 -97.95 -5.55 0 0 0 
3.45 -103.35 -4.05 0 0 0 
3.45 -103.35 -3.75 0 0 0 
4.05 -103.95 -4.05 0 0 0 
4.05 -103.95 -3.75 0 0 0 
3.75 -103.35 -3.75 0 0 0 
3.45 -103.35 -3.15 0 0 0 
4.05 -103.95 -3.15 0 0 0 
4.35 -104.25 -3.15 0 0 0 
3.75 -103.35 -3.45 0 0 0 
3.75 -103.65 -3.15 0 0 0 
4.05 -104.25 -2.55 0 0 0 
4.35 -104.25 -2.85 0 0 0 
3.15 -103.05 -2.55 0 0 0 
4.35 -104.55 -1.35 0 0 0 
4.05 -103.95 -1.95 0 0 0 
4.35 -104.25 -1.95 0 0 0 
3.75 -103.65 -2.25 0 0 0 
3.75 -103.65 -1.95 0 0 0 
4.05 -104.25 -1.35 0 0 0 
4.35 -104.25 -1.65 0 0 0 
4.65 -104.85 -1.05 0 0 0 
4.35 -104.55 -1.05 0 0 0 
4.65 -104.85 -0.75 0 0 0 
3.15 -103.05 -2.25 0 0 0 
7.05 -98.55 -4.65 0 0 0 
8.25 -100.05 -4.35 0 0 0 
8.25 -100.05 -4.05 0 0 0 
7.95 -99.75 -3.75 0 0 0 
8.55 -100.35 -3.75 0 0 0 
7.65 -99.45 -4.35 0 0 0 
7.35 -98.85 -4.65 0 0 0 
8.25 -100.35 -3.15 0 0 0 
7.95 -99.75 -3.45 0 0 0 
8.25 -100.65 -2.85 0 0 0 
8.25 -100.35 -2.85 0 0 0 
8.25 -100.35 -2.55 0 0 0 
7.95 -100.05 -2.55 0 0 0 
7.65 -99.45 -3.15 0 0 0 
7.65 -99.45 -2.85 0 0 0 
11.85 -96.75 -7.95 0 0 0 
11.85 -96.75 -7.65 0 0 0 
11.25 -96.15 -7.35 0 0 0 
11.55 -96.45 -7.65 0 0 0 
11.55 -96.45 -7.35 0 0 0 
12.45 -97.35 -9.45 0 0 0 
12.45 -97.35 -9.15 0 0 0 
12.45 -97.35 -8.85 0 0 0 
12.15 -97.05 -8.85 0 0 0 
12.15 -97.05 -8.55 0 0 0 
12.15 -97.05 -8.25 0 0 0 
12.15 -97.05 -7.95 0 0 0 
11.25 -96.15 -7.05 0 0 0 
14.85 -101.25 -1.65 0 0 0 
14.85 -101.25 -1.35 0 0 0 
14.85 -101.25 -1.05 0 0 0 
14.85 -101.25 -0.75 0 0 0 
11.25 -96.45 -3.45 0 0 0 
10.95 -96.15 -3.45 0 0 0 
10.95 -96.15 -3.15 0 0 0 
17.25 -96.45 -1.95 0 0 0 
17.25 -96.45 -1.65 0 0 0 
17.25 -96.15 -1.35 0 0 0 
17.25 -96.15 -1.05 0 0 0 
20.25 -99.75 -1.35 0 0 0 
20.55 -100.35 -1.35 0 0 0 
20.55 -100.05 -1.35 0 0 0 
20.55 -100.35 -1.05 0 0 0 
20.55 -100.05 -0.75 0 0 0 
11.55 -95.55 -18.75 0 0 0 
11.55 -95.25 -19.05 0 0 0 
11.55 -95.25 -18.75 0 0 0 
11.85 -95.55 -18.45 0 0 0 
11.25 -95.25 -18.45 0 0 0 
11.25 -95.25 -18.15 0 0 0 
11.55 -95.25 -18.45 0 0 0 
11.55 -95.25 -18.15 0 0 0 
11.55 -95.55 -17.55 0 0 0 
11.25 -95.25 -17.85 0 0 0 
11.85 -95.85 -17.25 0 0 0 
11.85 -95.85 -16.95 0 0 0 
11.55 -95.25 -17.25 0 0 0 
13.95 -92.85 -19.05 0 0 0 
14.25 -92.85 -19.05 0 0 0 
13.95 -92.85 -18.75 0 0 0 
14.25 -92.85 -18.75 0 0 0 
14.25 -92.85 -18.45 0 0 0 
13.95 -92.85 -18.15 0 0 0 
14.25 -92.85 -18.15 0 0 0 
14.25 -92.85 -17.85 0 0 0 
14.25 -93.15 -17.25 0 0 0 
14.25 -92.85 -17.25 0 0 0 
14.25 -92.85 -16.95 0 0 0 
11.85 -95.85 -16.65 0 0 0 
11.85 -95.85 -16.35 0 0 0 
11.85 -95.85 -16.05 0 0 0 
11.55 -95.85 -15.75 0 0 0 
14.55 -93.15 -17.55 0 0 0 
14.85 -93.75 -16.35 0 0 0 
14.85 -93.75 -14.85 0 0 0 
14.85 -93.75 -14.55 0 0 0 
14.55 -93.45 -16.35 0 0 0 
14.55 -93.45 -16.05 0 0 0 
14.55 -93.45 -15.75 0 0 0 
14.55 -93.45 -15.45 0 0 0 
14.55 -93.45 -15.15 0 0 0 
14.85 -93.45 -15.15 0 0 0 
14.85 -93.45 -14.85 0 0 0 
19.05 -91.35 -16.05 0 0 0 
19.05 -91.35 -15.75 0 0 0 
18.75 -91.35 -14.85 0 0 0 
18.75 -91.35 -14.55 0 0 0 
19.05 -91.35 -14.55 0 0 0 
18.45 -90.45 -19.05 0 0 0 
18.75 -90.75 -18.45 0 0 0 
18.75 -90.75 -18.15 0 0 0 
18.45 -90.45 -18.15 0 0 0 
18.75 -90.75 -17.55 0 0 0 
18.45 -90.45 -17.85 0 0 0 
19.05 -91.05 -17.25 0 0 0 
18.75 -90.75 -17.25 0 0 0 
18.75 -91.05 -16.95 0 0 0 
18.75 -91.05 -16.65 0 0 0 
19.05 -91.05 -16.35 0 0 0 
18.75 -91.05 -15.75 0 0 0 
18.75 -91.05 -15.45 0 0 0 
15.15 -93.75 -14.25 0 0 0 
15.15 -94.05 -13.95 0 0 0 
15.15 -94.05 -13.65 0 0 0 
15.15 -94.05 -13.35 0 0 0 
15.15 -94.05 -13.05 0 0 0 
15.45 -94.05 -13.05 0 0 0 
15.15 -94.05 -12.75 0 0 0 
15.45 -94.35 -12.15 0 0 0 
15.15 -94.05 -12.45 0 0 0 
15.45 -94.05 -12.45 0 0 0 
15.45 -94.05 -12.15 0 0 0 
19.05 -91.35 -14.25 0 0 0 
19.05 -91.65 -13.95 0 0 0 
19.05 -91.65 -13.35 0 0 0 
15.45 -94.35 -11.85 0 0 0 
15.45 -94.35 -11.55 0 0 0 
15.45 -94.05 -11.85 0 0 0 
15.45 -94.35 -11.25 0 0 0 
15.75 -94.65 -10.95 0 0 0 
15.75 -94.35 -10.95 0 0 0 
15.45 -94.35 -10.65 0 0 0 
15.45 -94.35 -10.35 0 0 0 
15.75 -94.35 -10.65 0 0 0 
10.35 -94.95 -6.75 0 0 0 
10.35 -94.95 -6.45 0 0 0 
10.05 -94.65 -7.05 0 0 0 
9.75 -94.35 -7.05 0 0 0 
9.75 -94.35 -6.75 0 0 0 
10.05 -94.65 -6.45 0 0 0 
10.05 -94.65 -6.15 0 0 0 
10.05 -94.65 -5.85 0 0 0 
9.75 -94.65 -5.55 0 0 0 
10.05 -94.65 -5.55 0 0 0 
9.75 -94.65 -5.25 0 0 0 
9.75 -94.65 -4.95 0 0 0 
14.25 -92.85 -5.85 0 0 0 
14.25 -92.85 -5.25 0 0 0 
16.05 -94.95 -9.15 0 0 0 
15.75 -94.65 -9.45 0 0 0 
15.75 -94.65 -9.15 0 0 0 
15.75 -94.35 -9.15 0 0 0 
15.75 -94.35 -8.85 0 0 0 
15.75 -94.65 -8.55 0 0 0 
15.45 -94.35 -7.35 0 0 0 
15.45 -94.05 -7.35 0 0 0 
15.75 -94.65 -8.25 0 0 0 
15.75 -94.65 -7.95 0 0 0 
15.75 -94.35 -7.95 0 0 0 
15.75 -94.65 -7.65 0 0 0 
15.75 -94.35 -7.65 0 0 0 
15.45 -94.35 -7.05 0 0 0 
15.15 -94.05 -7.05 0 0 0 
15.45 -94.05 -7.05 0 0 0 
15.15 -93.75 -6.75 0 0 0 
15.45 -94.05 -6.15 0 0 0 
15.15 -93.75 -4.95 0 0 0 
14.85 -93.45 -6.75 0 0 0 
14.85 -93.45 -6.45 0 0 0 
14.55 -93.15 -6.45 0 0 0 
14.55 -93.15 -5.85 0 0 0 
14.55 -93.15 -5.55 0 0 0 
14.85 -93.45 -4.95 0 0 0 
19.05 -92.25 -7.05 0 0 0 
18.15 -91.35 -6.75 0 0 0 
18.15 -91.35 -6.45 0 0 0 
18.45 -91.65 -6.15 0 0 0 
17.85 -91.35 -4.95 0 0 0 
18.15 -91.35 -5.25 0 0 0 
17.85 -91.05 -6.75 0 0 0 
17.85 -91.05 -6.15 0 0 0 
17.85 -91.05 -5.85 0 0 0 
17.55 -90.75 -5.85 0 0 0 
17.55 -90.75 -5.55 0 0 0 
17.25 -90.45 -5.55 0 0 0 
17.25 -90.15 -5.55 0 0 0 
17.85 -91.05 -5.25 0 0 0 
17.55 -91.05 -4.95 0 0 0 
17.25 -90.45 -5.25 0 0 0 
10.05 -94.95 -4.65 0 0 0 
10.05 -94.95 -4.05 0 0 0 
9.75 -94.35 -4.65 0 0 0 
9.75 -94.35 -4.35 0 0 0 
10.65 -95.85 -3.45 0 0 0 
10.65 -95.85 -3.15 0 0 0 
10.65 -95.85 -2.85 0 0 0 
14.25 -92.55 -4.65 0 0 0 
14.25 -92.85 -4.35 0 0 0 
14.25 -92.55 -4.35 0 0 0 
14.25 -92.85 -4.05 0 0 0 
14.25 -92.55 -3.75 0 0 0 
15.15 -93.75 -4.65 0 0 0 
16.35 -95.25 -2.55 0 0 0 
15.45 -94.05 -3.15 0 0 0 
15.45 -94.35 -2.85 0 0 0 
15.75 -94.65 -3.45 0 0 0 
16.05 -94.65 -3.45 0 0 0 
16.05 -94.65 -2.85 0 0 0 
15.75 -94.35 -2.55 0 0 0 
17.85 -91.35 -4.35 0 0 0 
17.85 -91.35 -4.05 0 0 0 
17.85 -91.35 -3.15 0 0 0 
17.85 -91.35 -2.85 0 0 0 
18.15 -91.35 -3.45 0 0 0 
18.15 -91.35 -3.15 0 0 0 
18.15 -91.95 -2.85 0 0 0 
18.15 -91.95 -2.55 0 0 0 
18.45 -91.95 -2.55 0 0 0 
18.75 -92.25 -2.55 0 0 0 
18.15 -91.65 -2.85 0 0 0 
18.75 -92.55 -1.35 0 0 0 
18.75 -92.25 -2.25 0 0 0 
18.15 -91.65 -1.95 0 0 0 
17.55 -90.75 -4.65 0 0 0 
17.55 -91.05 -4.05 0 0 0 
17.85 -91.05 -4.05 0 0 0 
17.85 -91.05 -3.75 0 0 0 
17.25 -90.75 -3.45 0 0 0 
19.35 -91.95 -15.15 0 0 0 
19.35 -91.95 -14.85 0 0 0 
19.35 -91.65 -14.85 0 0 0 
24.75 -88.95 -19.05 0 0 0 
24.75 -88.95 -18.75 0 0 0 
24.75 -88.95 -18.15 0 0 0 
24.45 -88.95 -17.55 0 0 0 
24.75 -88.95 -17.85 0 0 0 
25.05 -89.55 -16.95 0 0 0 
24.75 -88.95 -17.25 0 0 0 
24.45 -88.65 -18.75 0 0 0 
24.75 -88.65 -19.05 0 0 0 
24.75 -88.65 -18.45 0 0 0 
24.45 -88.65 -17.85 0 0 0 
24.45 -88.65 -17.25 0 0 0 
24.45 -88.65 -16.95 0 0 0 
24.75 -89.25 -16.65 0 0 0 
25.05 -89.25 -16.65 0 0 0 
24.75 -88.95 -16.65 0 0 0 
24.75 -88.95 -16.35 0 0 0 
25.05 -89.55 -15.75 0 0 0 
25.05 -89.55 -15.45 0 0 0 
25.05 -89.55 -15.15 0 0 0 
24.75 -89.25 -15.45 0 0 0 
24.75 -88.95 -15.45 0 0 0 
24.75 -89.25 -15.15 0 0 0 
24.75 -89.25 -14.85 0 0 0 
25.05 -89.25 -14.85 0 0 0 
25.35 -89.85 -14.85 0 0 0 
25.35 -89.85 -14.55 0 0 0 
19.35 -92.25 -13.65 0 0 0 
19.65 -92.25 -13.65 0 0 0 
19.65 -92.25 -13.35 0 0 0 
19.35 -92.25 -13.05 0 0 0 
19.35 -92.25 -12.75 0 0 0 
19.35 -91.95 -12.75 0 0 0 
19.65 -92.25 -12.45 0 0 0 
19.35 -92.25 -12.15 0 0 0 
19.65 -92.25 -12.15 0 0 0 
19.65 -92.55 -11.25 0 0 0 
19.65 -92.85 -10.95 0 0 0 
19.65 -92.55 -10.95 0 0 0 
19.35 -92.25 -11.85 0 0 0 
19.35 -91.95 -11.85 0 0 0 
19.35 -92.25 -11.55 0 0 0 
19.35 -91.95 -11.55 0 0 0 
19.65 -92.85 -10.65 0 0 0 
19.65 -92.55 -10.65 0 0 0 
19.65 -92.55 -9.75 0 0 0 
25.35 -90.15 -13.95 0 0 0 
25.35 -90.15 -13.65 0 0 0 
25.05 -89.55 -13.35 0 0 0 
25.35 -89.85 -14.25 0 0 0 
25.35 -89.85 -13.95 0 0 0 
25.35 -89.85 -13.35 0 0 0 
25.35 -90.15 -13.05 0 0 0 
25.35 -90.15 -12.75 0 0 0 
25.65 -90.15 -12.75 0 0 0 
25.65 -90.45 -12.45 0 0 0 
25.35 -90.15 -12.45 0 0 0 
25.65 -90.45 -12.15 0 0 0 
25.65 -90.15 -12.15 0 0 0 
25.95 -90.75 -11.55 0 0 0 
25.65 -90.15 -11.85 0 0 0 
25.65 -90.45 -11.55 0 0 0 
25.65 -90.75 -11.25 0 0 0 
25.95 -90.75 -11.25 0 0 0 
25.95 -90.75 -10.95 0 0 0 
25.65 -90.45 -11.25 0 0 0 
25.95 -91.05 -10.65 0 0 0 
25.95 -90.75 -10.65 0 0 0 
25.95 -91.05 -10.35 0 0 0 
25.65 -90.45 -10.35 0 0 0 
25.95 -91.05 -10.05 0 0 0 
25.95 -90.75 -10.05 0 0 0 
25.95 -90.75 -9.75 0 0 0 
25.65 -90.45 -9.75 0 0 0 
32.85 -87.75 -18.75 0 0 0 
33.15 -88.35 -18.45 0 0 0 
32.85 -87.75 -18.45 0 0 0 
32.85 -88.05 -18.15 0 0 0 
32.85 -87.75 -18.15 0 0 0 
33.15 -88.05 -18.45 0 0 0 
32.55 -87.45 -18.15 0 0 0 
32.85 -87.75 -17.85 0 0 0 
32.55 -87.75 -17.55 0 0 0 
32.85 -87.75 -17.55 0 0 0 
33.15 -88.35 -16.95 0 0 0 
32.85 -87.75 -16.95 0 0 0 
32.55 -87.45 -17.55 0 0 0 
33.15 -88.95 -15.45 0 0 0 
33.15 -88.95 -15.15 0 0 0 
33.45 -89.55 -14.85 0 0 0 
33.45 -89.25 -14.85 0 0 0 
33.15 -88.95 -14.85 0 0 0 
33.45 -88.95 -14.85 0 0 0 
33.45 -89.25 -14.55 0 0 0 
32.85 -88.35 -16.65 0 0 0 
32.85 -88.35 -16.35 0 0 0 
33.15 -88.35 -16.65 0 0 0 
32.85 -88.05 -16.65 0 0 0 
32.85 -87.75 -16.65 0 0 0 
33.15 -88.65 -16.05 0 0 0 
32.85 -88.05 -16.05 0 0 0 
33.15 -88.65 -15.45 0 0 0 
32.85 -88.65 -14.85 0 0 0 
32.85 -88.65 -14.55 0 0 0 
33.15 -88.65 -14.85 0 0 0 
33.15 -88.65 -14.55 0 0 0 
33.15 -88.95 -14.25 0 0 0 
33.45 -89.25 -13.95 0 0 0 
33.45 -89.55 -13.65 0 0 0 
33.45 -89.55 -13.35 0 0 0 
33.45 -89.25 -13.65 0 0 0 
33.15 -89.25 -13.35 0 0 0 
33.15 -88.95 -13.35 0 0 0 
33.45 -89.55 -13.05 0 0 0 
33.45 -89.85 -12.75 0 0 0 
33.45 -89.85 -12.45 0 0 0 
33.45 -89.85 -12.15 0 0 0 
33.15 -89.55 -12.15 0 0 0 
33.15 -89.25 -12.15 0 0 0 
33.15 -88.65 -14.25 0 0 0 
32.85 -88.65 -13.35 0 0 0 
32.85 -88.65 -13.05 0 0 0 
33.15 -89.55 -11.85 0 0 0 
33.15 -89.55 -11.55 0 0 0 
33.45 -89.55 -11.55 0 0 0 
33.15 -89.25 -11.85 0 0 0 
33.15 -89.25 -11.55 0 0 0 
33.15 -89.55 -10.95 0 0 0 
33.15 -89.25 -11.25 0 0 0 
33.15 -89.25 -10.95 0 0 0 
33.45 -90.15 -10.35 0 0 0 
33.45 -90.15 -9.75 0 0 0 
33.45 -89.85 -10.65 0 0 0 
33.15 -89.55 -10.65 0 0 0 
33.15 -89.55 -10.35 0 0 0 
32.85 -88.95 -10.65 0 0 0 
32.85 -89.25 -10.35 0 0 0 
33.15 -89.85 -10.05 0 0 0 
33.45 -89.85 -10.05 0 0 0 
33.15 -89.55 -10.05 0 0 0 
33.15 -89.85 -9.75 0 0 0 
32.85 -89.25 -9.75 0 0 0 
33.15 -89.25 -9.75 0 0 0 
19.35 -92.55 -9.45 0 0 0 
19.65 -92.85 -9.15 0 0 0 
19.65 -92.55 -9.15 0 0 0 
19.65 -92.85 -8.85 0 0 0 
19.65 -92.85 -8.55 0 0 0 
19.65 -93.15 -7.95 0 0 0 
19.65 -92.85 -8.25 0 0 0 
19.65 -92.85 -7.65 0 0 0 
19.35 -92.55 -7.65 0 0 0 
19.35 -92.55 -7.35 0 0 0 
19.35 -92.55 -7.05 0 0 0 
19.35 -92.55 -6.75 0 0 0 
26.25 -91.35 -7.95 0 0 0 
26.25 -91.35 -7.65 0 0 0 
26.25 -91.35 -7.35 0 0 0 
26.25 -91.35 -7.05 0 0 0 
26.25 -91.65 -6.45 0 0 0 
26.25 -91.35 -6.15 0 0 0 
25.65 -90.45 -9.45 0 0 0 
25.95 -91.05 -8.25 0 0 0 
25.95 -90.75 -8.25 0 0 0 
25.95 -90.75 -7.95 0 0 0 
25.95 -91.05 -7.65 0 0 0 
25.95 -91.05 -7.35 0 0 0 
25.65 -90.75 -7.05 0 0 0 
25.65 -90.45 -7.05 0 0 0 
25.65 -90.45 -6.75 0 0 0 
25.35 -90.15 -6.75 0 0 0 
25.65 -90.75 -6.45 0 0 0 
25.65 -90.45 -6.45 0 0 0 
25.95 -91.05 -5.85 0 0 0 
