# .PCD v0.7 - Point Cloud Data file format
VERSION 0.7
FIELDS x y z
SIZE 4 4 4
TYPE F F F
COUNT 1 1 1
WIDTH 1673
HEIGHT 1
VIEWPOINT 0 0 0 1 0 0 0
POINTS 1673
DATA ascii
40.349998 -88.949997 -7.6500001
40.349998 -88.949997 -7.3499999
40.349998 -88.949997 -7.0500002
40.049999 -88.949997 -6.4499998
40.049999 -88.949997 -6.1500001
40.349998 -88.949997 -6.4499998
40.049999 -88.949997 -5.8499999
40.049999 -88.650002 -7.0500002
40.049999 -88.650002 -6.75
40.049999 -88.650002 -6.1500001
40.049999 -88.650002 -5.8499999
40.049999 -88.650002 -5.5500002
39.75 -88.349998 -5.5500002
40.049999 -88.349998 -5.5500002
40.049999 -88.650002 -5.25
40.049999 -88.349998 -5.25
39.75 -88.349998 -4.9499998
40.049999 -88.349998 -4.9499998
39.75 -88.050003 -4.9499998
45.450001 -88.949997 -8.8500004
44.25 -89.25 -7.3499999
45.150002 -88.949997 -8.25
45.450001 -88.949997 -8.25
44.549999 -88.949997 -7.6500001
44.849998 -88.949997 -7.3499999
45.150002 -88.949997 -7.6500001
44.849998 -86.550003 -7.6500001
44.549999 -86.550003 -7.3499999
44.849998 -86.550003 -7.3499999
45.150002 -86.550003 -7.6500001
46.049999 -87.150002 -9.1499996
45.75 -86.550003 -9.4499998
46.049999 -86.550003 -9.4499998
46.049999 -87.150002 -8.8500004
46.049999 -86.849998 -8.8500004
43.950001 -86.550003 -6.4499998
44.25 -86.550003 -6.4499998
44.25 -86.550003 -6.1500001
44.549999 -86.550003 -7.0500002
44.849998 -86.550003 -7.0500002
44.849998 -86.550003 -6.75
44.549999 -86.550003 -6.1500001
44.25 -86.550003 -5.8499999
43.650002 -86.849998 -5.25
44.549999 -86.550003 -5.8499999
44.849998 -86.550003 -4.9499998
45.150002 -86.550003 -4.9499998
39.450001 -87.75 -3.75
39.75 -88.349998 -4.6500001
39.75 -88.349998 -4.3499999
39.75 -88.050003 -4.3499999
39.75 -87.75 -4.3499999
39.75 -88.349998 -4.0500002
39.75 -88.349998 -3.75
39.75 -87.75 -4.0500002
39.450001 -87.449997 -3.75
39.75 -88.050003 -3.45
39.450001 -87.449997 -3.1500001
39.150002 -86.849998 -3.1500001
39.150002 -86.550003 -3.1500001
39.450001 -87.449997 -2.8499999
39.450001 -87.449997 -2.55
41.849998 -87.150002 -2.8499999
42.75 -87.150002 -3.1500001
39.450001 -87.449997 -2.25
39.150002 -87.150002 -2.25
39.450001 -87.449997 -1.95
39.150002 -86.550003 -1.95
39.150002 -87.150002 -1.65
39.150002 -87.150002 -1.35
39.150002 -86.849998 -1.35
39.150002 -86.849998 -1.05
43.650002 -86.849998 -4.0500002
43.349998 -86.849998 -3.75
45.150002 -86.550003 -4.6500001
45.450001 -86.550003 -4.6500001
43.349998 -86.849998 -3.45
45.450001 -87.449997 -0.75
45.75 -88.050003 -0.75
45.75 -87.75 -0.75
45.75 -88.050003 -0.44999999
45.75 -87.75 -0.44999999
45.450001 -85.650002 -9.1499996
45.450001 -85.650002 -8.8500004
45.450001 -85.650002 -8.5500002
45.150002 -85.349998 -8.5500002
45.150002 -85.050003 -8.8500004
45.450001 -86.25 -8.25
45.450001 -86.25 -7.9499998
45.450001 -85.949997 -7.9499998
44.849998 -85.050003 -8.25
44.849998 -85.050003 -7.9499998
45.150002 -85.050003 -8.25
45.150002 -85.050003 -7.9499998
46.349998 -86.25 -9.4499998
46.349998 -85.949997 -9.4499998
46.349998 -86.25 -9.1499996
46.650002 -85.949997 -9.1499996
45.75 -86.25 -8.8500004
46.049999 -86.25 -8.8500004
45.75 -86.25 -8.5500002
46.049999 -86.25 -8.5500002
46.349998 -86.25 -8.8500004
45.75 -86.25 -8.25
46.049999 -86.25 -8.25
45.75 -86.25 -7.9499998
45.75 -86.25 -7.6500001
44.849998 -85.349998 -6.1500001
44.849998 -85.050003 -6.1500001
45.150002 -85.949997 -5.8499999
44.849998 -85.349998 -5.5500002
45.150002 -85.650002 -5.5500002
44.849998 -85.349998 -5.25
44.849998 -85.349998 -4.9499998
45.150002 -85.650002 -5.25
44.25 -84.150002 -5.25
44.549999 -84.75 -4.9499998
44.549999 -84.449997 -4.9499998
47.849998 -78.150002 -6.75
47.849998 -78.449997 -6.4499998
47.849998 -78.449997 -6.1500001
47.849998 -78.150002 -6.1500001
47.849998 -78.150002 -5.8499999
47.849998 -78.449997 -5.5500002
47.849998 -78.449997 -5.25
38.849998 -86.25 -3.45
44.849998 -85.349998 -4.6500001
44.849998 -85.349998 -4.3499999
44.25 -84.449997 -4.0500002
44.849998 -85.050003 -4.6500001
44.549999 -84.75 -4.6500001
44.549999 -85.050003 -4.3499999
44.549999 -84.75 -4.3499999
43.650002 -83.25 -3.45
43.650002 -83.25 -3.1500001
43.650002 -83.550003 -2.8499999
43.950001 -83.849998 -2.8499999
43.950001 -83.849998 -2.55
43.650002 -83.25 -2.8499999
44.549999 -85.949997 -1.05
44.849998 -85.949997 -1.05
44.849998 -85.949997 -0.75
43.650002 -83.550003 -1.95
43.650002 -83.25 -2.25
43.349998 -82.949997 -1.95
43.650002 -83.550003 -1.65
43.650002 -83.25 -1.35
43.650002 -83.25 -1.05
49.650002 -82.050003 -9.4499998
49.349998 -81.75 -9.4499998
48.75 -80.550003 -7.6500001
48.75 -80.25 -7.3499999
48.75 -80.25 -7.0500002
48.75 -79.949997 -5.25
48.150002 -78.75 -6.1500001
51.75 -76.949997 -7.0500002
51.75 -76.949997 -6.75
49.349998 -81.75 -3.1500001
49.049999 -80.849998 -4.3499999
49.049999 -80.849998 -4.0500002
49.049999 -80.550003 -3.75
49.349998 -81.150002 -3.75
48.75 -80.25 -4.6500001
48.75 -80.25 -4.3499999
48.75 -80.25 -4.0500002
48.75 -80.25 -3.75
49.049999 -80.849998 -2.8499999
49.049999 -80.849998 -2.55
48.75 -80.550003 -2.55
49.349998 -81.449997 -3.45
49.349998 -81.150002 -3.45
49.349998 -81.449997 -3.1500001
49.349998 -81.150002 -3.1500001
49.349998 -81.449997 -2.8499999
48.75 -80.25 -2.8499999
48.75 -79.949997 -2.8499999
48.75 -79.949997 -2.55
52.349998 -78.75 -3.45
52.349998 -79.050003 -3.1500001
52.650002 -79.050003 -3.1500001
52.349998 -78.75 -3.1500001
52.349998 -79.050003 -2.8499999
48.75 -80.550003 -2.25
48.450001 -79.650002 -1.95
52.650002 -80.25 -1.35
52.650002 -79.949997 -1.35
52.650002 -79.650002 -1.35
52.650002 -80.25 -1.05
52.650002 -79.949997 -1.05
52.650002 -79.949997 -0.75
52.349998 -79.050003 -2.25
52.049999 -78.75 -1.65
52.049999 -78.449997 -1.35
56.25 -80.25 -1.35
56.25 -79.949997 -1.35
55.950001 -79.650002 -1.35
55.950001 -79.650002 -1.05
58.349998 -90.75 -5.25
58.349998 -90.75 -4.9499998
58.650002 -91.349998 -4.6500001
58.349998 -91.349998 -4.3499999
58.349998 -91.349998 -4.0500002
58.650002 -91.650002 -3.75
58.650002 -91.949997 -3.45
58.349998 -91.349998 -3.45
58.349998 -91.650002 -3.1500001
58.049999 -90.75 -4.6500001
58.049999 -90.75 -4.3499999
58.349998 -90.75 -4.6500001
58.349998 -91.050003 -4.3499999
58.349998 -90.75 -4.3499999
58.049999 -90.449997 -4.3499999
58.049999 -90.75 -3.75
58.049999 -90.449997 -4.0500002
58.049999 -90.449997 -3.75
58.049999 -91.050003 -3.45
58.349998 -91.050003 -3.45
85.949997 -134.55 -70.650002
85.949997 -133.95 -70.949997
85.650002 -133.64999 -70.949997
85.949997 -134.25 -70.650002
82.949997 -128.25 -70.349998
82.949997 -127.95 -70.349998
79.650002 -121.35 -68.550003
79.949997 -122.25 -68.25
79.949997 -121.95 -68.25
82.650002 -122.85 -69.150002
82.650002 -122.85 -68.849998
82.349998 -122.55 -68.849998
82.050003 -121.95 -69.150002
82.349998 -122.25 -69.150002
79.050003 -119.85 -69.150002
79.650002 -117.75 -67.949997
79.949997 -117.75 -67.949997
76.949997 -115.95 -67.650002
76.949997 -116.25 -67.349998
79.349998 -117.15 -68.25
79.650002 -117.45 -67.949997
79.650002 -117.15 -67.949997
79.349998 -116.85 -68.25
78.150002 -115.05 -67.650002
78.449997 -115.05 -67.650002
78.150002 -114.75 -67.650002
77.550003 -113.85 -67.949997
77.25 -113.25 -67.650002
81.449997 -100.65 -68.25
81.150002 -100.35 -68.25
79.949997 -99.150002 -67.650002
79.650002 -98.849998 -67.650002
79.349998 -98.550003 -67.650002
77.849998 -97.349998 -67.650002
78.449997 -97.949997 -67.650002
78.75 -97.949997 -67.650002
78.75 -98.25 -67.349998
79.050003 -98.25 -67.349998
78.449997 -97.650002 -67.650002
78.150002 -97.349998 -67.650002
77.25 -96.75 -67.349998
77.550003 -97.050003 -67.349998
77.849998 -97.050003 -67.349998
77.550003 -96.75 -67.349998
77.25 -96.449997 -67.349998
81.75 -100.65 -68.25
91.050003 -79.050003 -69.150002
77.849998 -80.849998 -66.75
77.25 -81.150002 -66.449997
76.949997 -81.150002 -66.150002
77.25 -81.150002 -66.150002
77.550003 -80.849998 -66.449997
78.150002 -80.849998 -67.050003
78.449997 -80.849998 -67.050003
78.449997 -80.849998 -66.75
79.050003 -80.849998 -67.050003
78.75 -80.849998 -66.75
79.050003 -80.849998 -66.75
79.349998 -80.849998 -67.050003
79.650002 -80.550003 -67.050003
79.949997 -80.550003 -67.050003
80.25 -80.550003 -67.050003
77.849998 -77.25 -66.75
76.949997 -77.25 -66.449997
77.25 -77.25 -66.449997
77.550003 -77.25 -66.449997
78.150002 -77.25 -66.75
78.449997 -77.25 -66.75
78.150002 -77.25 -66.449997
78.449997 -77.25 -66.449997
78.75 -77.25 -66.449997
79.050003 -76.949997 -66.449997
79.349998 -76.949997 -66.75
79.949997 -76.949997 -66.75
80.25 -76.949997 -66.75
79.650002 -76.949997 -66.449997
16.65 -69.150002 -58.349998
16.35 -69.150002 -58.049999
18.450001 -67.050003 -58.049999
18.15 -67.050003 -57.75
18.450001 -67.050003 -57.75
18.75 -67.050003 -58.049999
36.75 -76.650002 -61.349998
36.450001 -76.050003 -61.349998
22.65 -66.449997 -58.349998
22.950001 -66.449997 -58.650002
24.75 -66.150002 -58.950001
25.049999 -65.849998 -58.950001
25.35 -65.849998 -58.950001
26.25 -65.849998 -59.25
26.85 -65.550003 -59.25
27.15 -65.550003 -58.950001
36.75 -64.050003 -60.150002
37.049999 -64.050003 -60.150002
37.950001 -63.75 -60.75
37.349998 -63.75 -60.450001
37.650002 -63.75 -60.450001
37.349998 -63.75 -60.150002
35.25 -59.849998 -58.950001
5.8499999 -51.75 -57.75
16.049999 -45.450001 -59.25
15.75 -45.450001 -58.950001
18.15 -45.150002 -59.25
16.35 -41.849998 -58.650002
19.049999 -40.950001 -59.849998
18.15 -41.549999 -58.950001
18.450001 -41.25 -59.25
21.450001 -56.25 -58.950001
21.15 -56.25 -58.650002
21.75 -56.25 -59.25
25.35 -56.549999 -58.950001
25.65 -56.549999 -58.950001
25.950001 -56.549999 -58.950001
26.25 -56.549999 -58.950001
26.549999 -56.549999 -58.950001
26.549999 -55.349998 -59.549999
26.85 -55.349998 -59.549999
27.15 -55.349998 -59.549999
26.85 -56.25 -59.25
27.450001 -56.25 -59.25
27.75 -55.349998 -59.549999
28.049999 -56.25 -59.25
28.35 -55.950001 -59.25
28.65 -55.950001 -59.25
28.049999 -55.049999 -59.849998
28.35 -55.049999 -59.849998
22.65 -49.049999 -59.849998
25.65 -48.450001 -60.450001
25.65 -48.450001 -60.150002
26.25 -48.450001 -60.150002
28.049999 -48.150002 -60.450001
28.35 -48.150002 -60.450001
31.65 -54.450001 -62.25
29.25 -55.950001 -59.549999
29.549999 -55.950001 -59.549999
28.950001 -55.950001 -59.25
30.15 -55.650002 -59.549999
30.75 -55.650002 -59.549999
31.35 -55.650002 -59.849998
31.35 -55.650002 -59.549999
31.950001 -55.349998 -59.549999
29.85 -54.75 -59.849998
35.25 -54.450001 -60.75
35.549999 -54.75 -58.950001
35.549999 -55.049999 -58.650002
29.25 -48.150002 -60.75
28.950001 -48.150002 -60.450001
29.25 -48.150002 -60.450001
35.549999 -52.049999 -61.650002
21.450001 -44.549999 -59.549999
21.75 -44.549999 -59.549999
25.049999 -43.950001 -59.849998
21.75 -40.650002 -59.25
23.85 -40.349998 -59.849998
23.549999 -40.349998 -59.549999
25.950001 -39.75 -60.75
25.950001 -40.049999 -60.150002
26.85 -39.450001 -60.75
27.450001 -39.450001 -60.75
27.75 -39.450001 -60.75
28.35 -39.150002 -61.049999
28.35 -39.150002 -60.75
28.35 -39.450001 -60.150002
28.65 -43.049999 -58.049999
28.65 -43.049999 -57.75
24.15 -40.349998 -59.849998
27.15 -40.049999 -58.650002
29.549999 -47.849998 -60.75
29.85 -47.849998 -60.75
30.15 -47.849998 -60.75
30.450001 -47.849998 -60.75
30.75 -47.849998 -60.75
31.35 -47.549999 -60.75
31.65 -44.25 -60.450001
31.65 -43.950001 -60.450001
36.450001 -44.25 -60.150002
36.75 -43.650002 -60.150002
38.25 -45.450001 -59.849998
33.150002 -42.150002 -60.75
32.849998 -42.450001 -60.450001
33.150002 -42.150002 -60.450001
30.15 -39.150002 -60.450001
30.75 -39.150002 -60.150002
29.25 -39.450001 -58.349998
29.25 -39.150002 -58.349998
29.25 -39.450001 -58.049999
31.35 -40.349998 -58.950001
37.950001 -41.549999 -61.349998
38.25 -41.549999 -61.349998
37.650002 -41.849998 -61.049999
37.349998 -41.549999 -60.450001
37.349998 -41.25 -60.450001
34.650002 -40.349998 -61.049999
34.349998 -40.650002 -60.75
34.950001 -39.75 -61.049999
34.950001 -40.049999 -60.75
35.25 -39.450001 -61.049999
37.349998 -40.650002 -60.75
37.650002 -39.450001 -60.450001
35.549999 -42.150002 -59.549999
35.849998 -38.849998 -59.849998
17.85 -63.150002 -43.950001
17.85 -63.150002 -43.650002
17.85 -63.450001 -43.349998
17.549999 -63.75 -42.75
17.549999 -63.75 -42.450001
17.85 -63.450001 -43.049999
17.25 -64.050003 -41.25
17.25 -64.349998 -40.650002
17.25 -64.050003 -40.650002
17.25 -64.349998 -40.049999
30.450001 -69.75 -45.75
30.450001 -69.449997 -46.049999
30.450001 -69.75 -45.450001
30.450001 -70.050003 -44.849998
30.15 -70.050003 -44.549999
30.15 -70.349998 -44.25
30.15 -70.349998 -43.950001
32.849998 -70.349998 -43.950001
30.75 -67.650002 -43.650002
31.35 -67.949997 -43.650002
31.35 -67.949997 -43.349998
35.849998 -70.050003 -44.849998
35.849998 -70.050003 -44.549999
35.549999 -70.949997 -43.650002
35.849998 -70.349998 -44.25
35.849998 -70.650002 -43.950001
35.849998 -70.349998 -43.950001
35.849998 -70.050003 -44.25
35.25 -72.150002 -41.549999
35.25 -72.150002 -41.25
35.25 -72.449997 -40.950001
38.25 -74.550003 -39.450001
38.25 -74.550003 -39.150002
38.25 -74.550003 -38.849998
38.25 -74.849998 -38.549999
34.950001 -72.75 -40.349998
35.25 -72.449997 -40.650002
29.85 -70.650002 -42.150002
29.85 -70.949997 -41.849998
29.85 -70.949997 -41.549999
30.450001 -67.949997 -41.849998
30.450001 -68.25 -41.549999
31.35 -68.25 -43.049999
30.75 -69.75 -40.049999
37.349998 -71.849998 -39.75
37.349998 -71.849998 -39.450001
37.349998 -71.849998 -39.150002
24.15 -60.150002 -42.150002
31.950001 -66.75 -43.349998
5.8499999 -51.75 -57.450001
9.75 -41.849998 -56.549999
9.75 -42.150002 -56.25
9.75 -42.450001 -55.950001
9.75 -42.75 -55.650002
9.75 -42.75 -55.349998
18.15 -52.049999 -43.950001
18.15 -52.349998 -43.349998
17.85 -52.950001 -39.75
18.15 -52.650002 -42.75
4.0500002 -47.849998 -45.75
4.0500002 -47.849998 -45.450001
0.15000001 -40.049999 -38.549999
19.65 -53.549999 -42.75
19.65 -53.25 -43.049999
19.65 -54.150002 -41.25
45.450001 -75.449997 -61.349998
45.450001 -75.75 -61.049999
45.150002 -75.150002 -61.049999
45.450001 -75.150002 -61.049999
45.150002 -74.550003 -61.049999
45.150002 -74.849998 -60.75
46.650002 -76.349998 -61.349998
46.650002 -75.75 -61.349998
46.950001 -76.650002 -61.349998
46.049999 -75.150002 -61.349998
46.049999 -76.650002 -60.75
45.75 -76.349998 -60.75
46.650002 -76.050003 -61.049999
46.349998 -75.75 -61.049999
46.049999 -75.150002 -61.049999
46.349998 -75.449997 -61.049999
46.049999 -74.849998 -61.049999
46.049999 -74.550003 -61.049999
44.25 -73.349998 -60.75
44.849998 -73.949997 -61.049999
44.849998 -74.25 -60.75
44.549999 -73.949997 -60.75
44.849998 -73.949997 -60.75
44.549999 -73.650002 -60.75
44.549999 -73.349998 -60.75
45.450001 -73.650002 -61.049999
44.25 -73.050003 -60.75
45.150002 -73.050003 -61.049999
45.150002 -72.75 -61.049999
45.75 -74.25 -61.349998
45.75 -74.25 -61.049999
42.450001 -69.449997 -61.049999
42.450001 -69.449997 -60.75
42.75 -69.449997 -61.049999
42.450001 -69.150002 -60.450001
42.150002 -68.550003 -60.450001
43.650002 -71.550003 -60.75
43.349998 -71.25 -61.049999
43.349998 -70.949997 -61.049999
46.349998 -69.449997 -61.349998
46.650002 -69.449997 -61.349998
46.950001 -69.449997 -61.349998
47.25 -69.449997 -61.349998
47.549999 -69.449997 -61.650002
47.849998 -69.449997 -61.650002
47.849998 -69.449997 -61.349998
54.150002 -74.550003 -62.549999
54.450001 -74.550003 -62.549999
56.849998 -74.25 -63.150002
57.150002 -74.25 -63.150002
56.549999 -74.25 -62.849998
53.25 -68.550003 -62.549999
53.549999 -68.550003 -62.549999
53.849998 -68.550003 -62.549999
54.450001 -68.550003 -62.849998
54.150002 -68.550003 -62.549999
50.549999 -72.150002 -61.650002
53.25 -74.849998 -62.25
53.549999 -74.849998 -62.25
53.849998 -74.849998 -62.25
54.150002 -74.550003 -62.25
48.150002 -69.449997 -61.650002
48.450001 -69.449997 -61.349998
48.450001 -69.150002 -61.349998
48.75 -69.150002 -61.650002
49.049999 -69.150002 -61.349998
49.349998 -69.150002 -61.650002
49.650002 -69.150002 -61.650002
49.349998 -69.150002 -61.349998
49.950001 -69.150002 -61.650002
50.25 -69.150002 -61.650002
51.150002 -68.849998 -61.950001
51.450001 -68.849998 -61.950001
50.549999 -69.150002 -61.650002
50.849998 -69.150002 -61.650002
50.849998 -68.849998 -61.650002
51.75 -68.849998 -62.25
52.049999 -68.849998 -62.25
52.349998 -68.849998 -62.25
52.650002 -68.849998 -62.25
52.950001 -68.849998 -62.25
47.25 -59.849998 -62.549999
39.150002 -65.25 -60.75
39.450001 -65.25 -60.75
38.849998 -65.25 -60.450001
41.25 -64.949997 -60.75
41.549999 -64.949997 -61.049999
40.650002 -63.150002 -61.950001
40.650002 -63.150002 -61.650002
38.849998 -63.75 -60.75
38.549999 -63.75 -60.450001
38.549999 -63.75 -60.150002
39.150002 -63.450001 -60.450001
39.450001 -63.450001 -60.450001
39.75 -63.450001 -61.049999
40.049999 -63.450001 -61.049999
39.75 -63.450001 -60.75
40.349998 -63.450001 -60.75
40.650002 -63.450001 -60.75
41.549999 -63.75 -62.25
41.849998 -64.050003 -61.950001
41.849998 -64.650002 -61.349998
43.049999 -64.650002 -61.349998
42.75 -62.849998 -61.349998
41.549999 -64.650002 -61.049999
42.150002 -64.650002 -61.049999
42.450001 -64.650002 -61.049999
42.75 -64.650002 -61.049999
40.950001 -63.150002 -60.75
41.25 -63.150002 -60.75
41.849998 -63.150002 -61.049999
41.549999 -63.150002 -60.75
41.849998 -63.150002 -60.75
42.150002 -63.150002 -61.049999
42.450001 -63.150002 -61.049999
42.450001 -62.849998 -61.049999
43.049999 -62.849998 -61.049999
43.650002 -62.849998 -61.349998
44.25 -62.849998 -61.349998
44.25 -62.549999 -61.349998
44.849998 -62.549999 -61.650002
44.549999 -62.549999 -61.349998
45.150002 -62.549999 -61.650002
45.450001 -62.549999 -61.650002
45.150002 -62.549999 -61.349998
43.650002 -64.349998 -61.049999
43.950001 -64.349998 -61.049999
44.25 -64.349998 -61.049999
44.549999 -64.349998 -61.049999
43.349998 -62.849998 -61.049999
43.650002 -62.849998 -61.049999
46.049999 -62.549999 -61.650002
45.75 -62.549999 -61.349998
39.150002 -61.650002 -61.950001
39.450001 -61.650002 -61.950001
39.75 -61.950001 -61.950001
39.450001 -60.150002 -61.049999
39.150002 -60.150002 -60.450001
39.150002 -60.450001 -60.150002
46.049999 -62.25 -61.650002
46.349998 -62.25 -61.650002
46.650002 -62.25 -61.650002
47.25 -62.25 -61.650002
46.950001 -62.25 -61.349998
47.549999 -62.25 -61.650002
47.849998 -62.25 -61.650002
47.849998 -61.950001 -61.650002
52.650002 -65.849998 -63.75
53.25 -66.75 -64.349998
52.950001 -66.150002 -64.349998
52.950001 -65.849998 -64.050003
53.25 -62.849998 -62.549999
53.549999 -62.849998 -62.849998
53.549999 -62.549999 -62.849998
53.849998 -62.549999 -62.849998
55.049999 -62.549999 -63.150002
54.150002 -62.549999 -62.849998
54.450001 -62.549999 -62.849998
55.349998 -62.549999 -63.150002
51.150002 -61.650002 -62.549999
51.450001 -61.349998 -62.549999
51.75 -61.349998 -62.549999
52.049999 -61.349998 -62.549999
52.650002 -61.349998 -62.849998
52.349998 -61.349998 -62.549999
52.650002 -61.349998 -62.549999
49.049999 -58.049999 -63.75
48.75 -57.75 -63.450001
52.950001 -61.349998 -62.849998
53.849998 -61.049999 -63.150002
53.25 -61.049999 -62.849998
53.549999 -61.049999 -62.849998
53.849998 -61.049999 -62.849998
54.150002 -61.049999 -63.450001
54.150002 -61.049999 -63.150002
54.450001 -61.049999 -63.150002
55.049999 -60.75 -63.450001
54.75 -61.049999 -63.150002
55.049999 -60.75 -63.150002
55.349998 -62.25 -63.150002
55.650002 -62.25 -63.150002
56.25 -62.25 -63.450001
55.950001 -62.25 -63.150002
56.25 -62.25 -63.150002
56.549999 -62.25 -63.150002
56.849998 -62.25 -63.150002
57.150002 -62.25 -63.150002
55.349998 -60.75 -63.450001
48.150002 -63.75 -61.650002
48.450001 -63.75 -61.650002
48.150002 -63.75 -61.349998
48.75 -63.450001 -61.650002
49.049999 -63.450001 -61.650002
50.549999 -63.150002 -62.25
50.849998 -63.150002 -62.25
51.150002 -63.150002 -62.25
51.450001 -63.150002 -62.25
52.049999 -63.150002 -62.25
51.75 -63.150002 -61.950001
52.049999 -62.849998 -62.25
52.349998 -62.849998 -62.25
52.650002 -62.849998 -62.25
52.950001 -62.849998 -62.25
48.150002 -61.950001 -61.950001
48.450001 -61.950001 -61.950001
48.75 -61.950001 -61.950001
49.049999 -61.950001 -61.950001
48.150002 -61.950001 -61.650002
49.349998 -61.950001 -62.25
49.349998 -61.950001 -61.950001
49.650002 -61.650002 -61.950001
49.950001 -61.650002 -62.25
49.950001 -61.650002 -61.950001
50.25 -61.650002 -61.950001
50.849998 -61.650002 -62.25
50.549999 -61.650002 -61.950001
51.150002 -61.650002 -62.25
59.25 -73.949997 -63.75
59.549999 -73.650002 -63.75
59.849998 -73.650002 -63.75
58.650002 -73.949997 -63.450001
58.950001 -73.949997 -63.450001
60.150002 -73.650002 -63.75
60.450001 -73.650002 -63.75
60.75 -73.650002 -63.75
61.650002 -67.650002 -64.349998
61.950001 -67.650002 -64.349998
62.25 -67.650002 -64.349998
64.349998 -67.349998 -64.949997
64.650002 -67.349998 -64.949997
62.549999 -67.349998 -64.650002
62.849998 -67.349998 -64.650002
63.150002 -67.349998 -64.650002
63.450001 -67.349998 -64.650002
63.75 -67.349998 -64.650002
64.050003 -67.349998 -64.650002
70.650002 -71.849998 -65.550003
70.349998 -71.849998 -65.25
70.949997 -71.849998 -65.550003
65.25 -67.050003 -65.25
64.949997 -67.050003 -64.949997
65.25 -67.050003 -64.949997
65.550003 -67.050003 -65.25
65.849998 -67.050003 -65.25
66.150002 -67.050003 -65.25
66.449997 -67.050003 -65.25
66.75 -67.050003 -65.25
67.050003 -66.75 -65.25
61.049999 -59.849998 -64.650002
60.75 -59.849998 -64.349998
61.349998 -59.849998 -64.650002
61.650002 -59.849998 -64.650002
61.950001 -59.849998 -64.650002
62.25 -59.549999 -64.650002
64.050003 -60.75 -64.949997
64.349998 -60.75 -64.949997
64.650002 -60.75 -64.949997
64.949997 -60.75 -64.949997
65.25 -60.75 -64.949997
63.150002 -59.549999 -64.949997
63.450001 -59.549999 -64.949997
63.75 -59.549999 -64.949997
63.75 -59.25 -64.949997
64.050003 -59.25 -64.949997
64.349998 -59.25 -64.949997
64.650002 -59.25 -64.949997
65.25 -59.25 -65.25
64.949997 -59.25 -64.949997
65.550003 -59.25 -65.25
65.550003 -58.950001 -65.25
65.849998 -58.950001 -65.25
66.150002 -58.950001 -65.25
66.449997 -58.950001 -65.25
66.75 -58.950001 -65.25
67.050003 -58.950001 -65.25
63.150002 -61.049999 -64.650002
63.450001 -61.049999 -64.650002
63.75 -61.049999 -64.650002
64.050003 -60.75 -64.650002
62.549999 -59.549999 -64.650002
62.849998 -59.549999 -64.650002
67.349998 -66.75 -65.550003
67.650002 -66.75 -65.550003
67.349998 -66.75 -65.25
67.650002 -66.75 -65.25
67.949997 -66.75 -65.25
68.25 -66.75 -65.25
69.449997 -66.449997 -65.550003
68.550003 -66.75 -65.25
68.849998 -66.75 -65.25
69.150002 -66.75 -65.25
69.75 -66.449997 -65.550003
70.050003 -66.449997 -65.550003
70.349998 -66.449997 -65.550003
70.650002 -66.449997 -65.550003
70.949997 -66.449997 -65.849998
71.25 -66.449997 -65.849998
70.949997 -66.449997 -65.550003
71.550003 -66.449997 -65.849998
71.849998 -66.449997 -65.550003
71.849998 -66.150002 -65.550003
73.949997 -66.150002 -66.150002
74.25 -65.849998 -66.150002
72.150002 -66.150002 -65.550003
72.449997 -66.150002 -65.550003
72.75 -66.150002 -65.849998
73.050003 -66.150002 -65.849998
73.349998 -66.150002 -65.849998
73.650002 -66.150002 -65.849998
75.449997 -65.849998 -66.75
74.550003 -65.849998 -66.150002
74.849998 -65.849998 -66.150002
75.150002 -65.849998 -66.449997
75.75 -65.849998 -66.449997
76.050003 -65.849998 -66.449997
76.349998 -65.849998 -66.449997
76.650002 -65.550003 -66.449997
67.349998 -60.450001 -65.25
67.650002 -60.150002 -65.25
67.949997 -60.150002 -65.25
68.25 -60.150002 -65.25
68.849998 -60.150002 -65.550003
68.550003 -60.150002 -65.25
68.849998 -60.150002 -65.25
67.349998 -58.950001 -65.25
69.150002 -59.849998 -65.550003
69.449997 -59.849998 -65.25
67.949997 -58.650002 -65.550003
68.25 -58.650002 -65.550003
67.650002 -58.650002 -65.25
67.949997 -58.650002 -65.25
68.550003 -58.650002 -65.550003
68.849998 -58.650002 -65.550003
69.449997 -58.349998 -65.550003
68.849998 -58.650002 -65.25
69.150002 -58.650002 -65.25
69.449997 -58.349998 -65.25
71.849998 -58.049999 -66.150002
69.75 -59.849998 -65.550003
70.050003 -59.849998 -65.550003
70.349998 -59.849998 -65.550003
69.75 -59.849998 -65.25
70.349998 -59.849998 -65.25
70.650002 -59.849998 -65.25
70.949997 -59.549999 -65.550003
71.25 -59.549999 -65.550003
71.849998 -59.549999 -65.550003
70.949997 -59.849998 -65.25
70.050003 -58.349998 -65.849998
69.75 -58.349998 -65.550003
70.349998 -58.349998 -65.849998
70.650002 -58.349998 -65.849998
70.949997 -58.349998 -65.849998
70.949997 -58.049999 -65.849998
71.25 -58.049999 -65.849998
71.550003 -58.049999 -65.849998
71.849998 -58.049999 -65.849998
74.25 -58.950001 -66.150002
72.150002 -58.049999 -66.150002
72.449997 -58.049999 -66.150002
73.050003 -57.75 -66.449997
72.75 -58.049999 -66.150002
72.75 -57.75 -66.150002
73.349998 -57.75 -66.150002
73.650002 -57.75 -66.150002
73.949997 -57.75 -66.449997
74.25 -57.75 -66.449997
72.150002 -59.549999 -65.550003
72.449997 -59.549999 -65.550003
72.75 -59.549999 -65.550003
73.050003 -59.25 -65.849998
72.75 -59.25 -65.550003
73.349998 -59.25 -65.849998
73.650002 -59.25 -65.550003
74.25 -59.25 -65.849998
73.949997 -59.25 -65.550003
73.349998 -57.75 -65.849998
74.550003 -58.950001 -66.150002
75.449997 -58.950001 -66.150002
75.75 -58.950001 -66.150002
74.849998 -58.950001 -65.849998
75.150002 -58.950001 -65.849998
76.050003 -58.950001 -65.849998
76.349998 -58.650002 -65.849998
76.650002 -58.650002 -65.849998
40.349998 -53.849998 -61.049999
40.650002 -53.849998 -61.049999
40.049999 -53.25 -60.75
40.650002 -53.25 -61.049999
40.349998 -53.25 -60.75
41.549999 -53.849998 -61.349998
41.849998 -53.549999 -61.349998
41.25 -52.950001 -61.349998
41.849998 -52.950001 -61.650002
41.549999 -52.950001 -61.349998
41.849998 -52.950001 -61.349998
42.150002 -53.549999 -61.349998
42.450001 -53.549999 -61.349998
42.75 -53.549999 -61.349998
43.049999 -53.549999 -61.349998
42.450001 -52.950001 -61.349998
40.950001 -53.849998 -61.049999
41.25 -53.849998 -61.049999
41.549999 -53.849998 -61.049999
40.950001 -52.950001 -61.049999
41.549999 -52.950001 -61.049999
42.75 -53.549999 -61.049999
43.349998 -53.549999 -61.349998
43.650002 -53.25 -61.349998
43.950001 -53.25 -61.349998
44.25 -53.25 -61.349998
44.849998 -53.25 -61.650002
44.549999 -53.25 -61.349998
45.150002 -53.25 -61.650002
45.150002 -52.950001 -61.650002
45.450001 -52.950001 -61.650002
46.049999 -52.950001 -61.950001
46.650002 -52.950001 -61.950001
45.75 -52.950001 -61.650002
46.349998 -52.950001 -61.650002
42.450001 -52.650002 -61.950001
42.75 -52.650002 -61.950001
40.349998 -49.349998 -60.150002
41.549999 -49.650002 -60.150002
41.549999 -49.349998 -60.150002
41.549999 -49.049999 -60.75
42.450001 -48.75 -60.75
42.450001 -48.450001 -61.049999
42.450001 -48.150002 -61.049999
43.349998 -52.650002 -61.349998
43.650002 -52.650002 -61.349998
43.950001 -52.650002 -61.650002
43.950001 -52.650002 -61.349998
44.25 -52.650002 -61.349998
44.549999 -52.650002 -61.650002
44.549999 -52.349998 -61.650002
44.849998 -52.349998 -61.650002
45.150002 -52.349998 -61.650002
45.450001 -52.349998 -61.650002
45.450001 -52.349998 -61.349998
44.849998 -51.150002 -61.349998
44.849998 -51.150002 -61.049999
46.650002 -52.650002 -61.950001
46.349998 -52.049999 -61.950001
45.75 -52.349998 -61.650002
46.049999 -52.349998 -61.650002
46.349998 -52.049999 -61.650002
46.650002 -52.049999 -61.650002
47.25 -52.650002 -61.950001
47.849998 -52.650002 -62.25
47.549999 -52.650002 -61.950001
47.849998 -52.650002 -61.950001
46.950001 -52.049999 -61.950001
47.25 -52.049999 -61.950001
47.549999 -52.049999 -61.950001
47.849998 -52.049999 -61.950001
46.950001 -52.650002 -61.650002
46.950001 -52.049999 -61.650002
48.75 -57.450001 -63.450001
49.349998 -52.349998 -62.549999
49.650002 -51.75 -62.549999
50.25 -52.049999 -62.549999
50.549999 -52.049999 -62.849998
50.849998 -52.049999 -62.549999
51.150002 -52.049999 -62.849998
51.150002 -52.049999 -62.549999
51.450001 -52.049999 -62.549999
52.049999 -51.75 -62.849998
51.75 -52.049999 -62.549999
51.75 -51.75 -62.549999
52.349998 -51.75 -62.849998
52.650002 -51.75 -62.849998
50.549999 -51.450001 -62.549999
50.849998 -51.450001 -62.549999
51.75 -51.150002 -63.150002
52.349998 -51.150002 -62.849998
52.349998 -51.150002 -62.549999
52.650002 -51.150002 -62.549999
55.049999 -50.549999 -63.75
53.25 -51.75 -63.150002
52.950001 -51.75 -62.849998
53.549999 -51.450001 -63.150002
53.849998 -51.450001 -63.150002
52.950001 -51.150002 -62.849998
53.25 -51.150002 -62.849998
52.950001 -51.150002 -62.549999
53.549999 -50.849998 -62.849998
53.849998 -50.849998 -62.849998
54.450001 -51.450001 -63.450001
54.150002 -51.450001 -63.150002
54.75 -51.450001 -63.450001
55.049999 -51.450001 -63.450001
55.049999 -51.150002 -63.450001
54.150002 -50.849998 -63.150002
54.450001 -50.849998 -63.150002
54.75 -50.849998 -63.450001
54.150002 -50.849998 -62.849998
55.950001 -51.150002 -63.75
56.25 -50.549999 -63.75
56.849998 -50.849998 -63.75
56.549999 -50.549999 -63.75
57.150002 -50.849998 -63.75
55.349998 -51.150002 -63.450001
55.650002 -51.150002 -63.450001
56.25 -51.150002 -63.450001
55.349998 -50.549999 -63.450001
55.650002 -50.549999 -63.450001
55.950001 -50.549999 -63.450001
56.549999 -51.150002 -63.450001
56.849998 -50.25 -63.75
57.150002 -50.25 -63.75
57.450001 -50.25 -63.75
48.450001 -52.349998 -62.25
48.150002 -52.650002 -61.950001
48.450001 -52.349998 -61.950001
48.75 -52.349998 -62.25
49.049999 -52.349998 -62.25
48.150002 -51.75 -61.950001
48.450001 -51.75 -61.950001
48.75 -51.75 -62.25
49.049999 -51.75 -62.25
48.75 -51.75 -61.950001
49.349998 -52.349998 -62.25
49.650002 -52.349998 -62.25
49.950001 -52.349998 -62.25
49.349998 -51.75 -62.25
49.950001 -51.450001 -62.25
50.25 -51.450001 -62.25
44.25 -45.75 -62.849998
43.950001 -45.75 -62.549999
44.25 -45.75 -62.549999
44.849998 -45.450001 -62.849998
44.549999 -45.450001 -62.549999
45.150002 -45.450001 -62.549999
45.450001 -45.450001 -62.549999
45.75 -45.450001 -62.849998
45.75 -45.450001 -62.549999
46.049999 -45.450001 -62.549999
46.650002 -45.150002 -62.849998
46.349998 -45.450001 -62.549999
46.950001 -45.150002 -62.849998
47.25 -45.150002 -62.849998
47.25 -45.150002 -62.549999
47.849998 -45.150002 -62.849998
47.549999 -45.150002 -62.549999
46.049999 -40.349998 -62.549999
46.349998 -40.049999 -62.549999
46.650002 -40.049999 -62.549999
47.549999 -40.049999 -62.549999
47.849998 -40.049999 -62.549999
47.849998 -39.75 -62.549999
38.849998 -47.25 -60.450001
38.849998 -46.950001 -60.450001
38.849998 -46.650002 -60.75
42.450001 -47.849998 -61.349998
40.950001 -46.049999 -61.950001
41.25 -46.049999 -61.950001
41.549999 -46.049999 -61.950001
41.849998 -46.049999 -61.950001
42.150002 -46.049999 -62.25
42.450001 -46.049999 -62.25
42.150002 -46.049999 -61.950001
42.75 -46.049999 -62.25
43.049999 -45.75 -62.25
42.75 -45.75 -61.950001
41.25 -46.950001 -60.150002
41.549999 -46.950001 -60.450001
41.849998 -46.650002 -60.75
39.75 -43.349998 -60.75
39.75 -43.650002 -60.450001
42.75 -44.25 -60.75
43.049999 -43.650002 -61.049999
43.049999 -43.349998 -61.049999
38.849998 -43.349998 -59.549999
43.650002 -45.75 -62.25
43.349998 -45.75 -61.950001
43.650002 -45.75 -61.950001
46.049999 -46.349998 -61.650002
46.049999 -46.349998 -61.349998
43.650002 -43.950001 -60.75
43.950001 -43.349998 -60.75
38.849998 -41.549999 -61.650002
38.549999 -41.549999 -61.349998
39.150002 -41.549999 -61.650002
39.150002 -41.549999 -61.349998
39.450001 -41.25 -61.349998
39.75 -41.25 -61.950001
40.349998 -41.549999 -61.349998
39.75 -41.25 -61.650002
39.75 -41.25 -61.349998
40.349998 -41.25 -61.650002
40.349998 -40.950001 -61.650002
40.349998 -41.25 -61.349998
39.450001 -40.950001 -60.150002
40.349998 -41.549999 -61.049999
42.450001 -40.950001 -61.950001
42.75 -40.950001 -61.950001
42.450001 -40.950001 -61.650002
43.049999 -43.049999 -61.049999
39.75 -39.450001 -60.450001
43.049999 -40.650002 -62.25
42.75 -40.650002 -61.950001
38.849998 -43.049999 -59.849998
38.849998 -43.049999 -59.549999
38.849998 -42.450001 -59.549999
39.150002 -41.849998 -59.849998
39.450001 -41.25 -59.849998
42.150002 -42.450001 -59.549999
43.950001 -42.75 -61.349998
43.950001 -41.549999 -61.349998
44.25 -41.25 -61.650002
43.950001 -41.25 -61.349998
43.950001 -43.049999 -61.049999
43.950001 -42.75 -61.049999
43.650002 -42.450001 -61.049999
43.950001 -41.849998 -61.049999
47.25 -42.150002 -61.950001
46.950001 -43.049999 -61.650002
46.950001 -42.75 -61.650002
47.25 -42.450001 -61.650002
47.25 -41.849998 -61.950001
47.25 -41.549999 -61.950001
47.25 -41.25 -61.950001
46.950001 -42.75 -61.049999
43.349998 -40.650002 -62.25
43.650002 -40.650002 -62.25
43.950001 -40.650002 -61.950001
44.25 -40.650002 -61.950001
44.849998 -40.349998 -62.25
44.549999 -40.650002 -61.950001
44.549999 -40.349998 -61.950001
45.150002 -40.349998 -62.25
45.450001 -40.349998 -62.25
45.150002 -38.549999 -61.950001
45.75 -40.349998 -62.25
46.049999 -40.349998 -62.25
46.950001 -40.049999 -62.25
47.25 -40.049999 -62.25
48.150002 -45.150002 -63.150002
48.450001 -44.849998 -63.150002
49.950001 -44.849998 -63.150002
50.25 -44.549999 -63.150002
50.549999 -44.549999 -63.450001
50.849998 -44.549999 -63.450001
51.150002 -44.549999 -63.450001
51.450001 -44.549999 -63.450001
51.75 -44.549999 -63.450001
52.049999 -44.549999 -63.450001
53.849998 -44.25 -63.75
55.049999 -43.950001 -64.349998
54.150002 -43.950001 -63.75
54.450001 -43.950001 -63.75
54.75 -43.950001 -64.050003
55.349998 -43.950001 -64.349998
55.650002 -43.950001 -64.349998
55.950001 -43.650002 -64.349998
56.25 -43.650002 -64.349998
56.549999 -43.650002 -64.349998
56.849998 -43.650002 -64.349998
57.150002 -43.650002 -64.349998
48.450001 -39.75 -62.849998
48.150002 -39.75 -62.549999
48.75 -39.75 -62.849998
49.049999 -39.75 -62.849998
49.349998 -39.75 -62.849998
49.950001 -39.450001 -63.150002
50.25 -39.450001 -63.150002
49.650002 -39.450001 -62.849998
50.25 -39.450001 -62.849998
50.549999 -39.450001 -63.150002
50.849998 -39.450001 -63.150002
51.150002 -39.450001 -63.150002
51.150002 -39.150002 -63.150002
51.450001 -39.150002 -63.150002
50.549999 -39.450001 -62.849998
51.75 -39.150002 -63.150002
52.049999 -39.150002 -63.150002
52.650002 -39.150002 -63.450001
52.349998 -39.150002 -63.150002
52.650002 -38.849998 -63.450001
53.25 -38.849998 -63.75
53.549999 -38.849998 -63.75
53.849998 -38.849998 -63.75
55.049999 -38.549999 -64.349998
54.450001 -38.849998 -64.050003
54.450001 -38.549999 -64.050003
54.150002 -38.849998 -63.75
54.75 -38.549999 -64.050003
55.049999 -38.549999 -64.050003
52.950001 -38.849998 -63.450001
55.349998 -38.549999 -64.050003
55.650002 -38.549999 -64.050003
55.950001 -38.549999 -64.050003
57.75 -50.25 -63.75
58.049999 -50.25 -63.75
63.75 -49.650002 -64.949997
64.050003 -49.650002 -64.949997
64.349998 -49.650002 -64.949997
64.650002 -49.650002 -64.949997
65.25 -49.349998 -65.25
64.949997 -49.650002 -64.949997
65.25 -49.349998 -64.949997
65.550003 -49.349998 -65.25
65.849998 -49.349998 -65.25
66.150002 -49.349998 -65.25
66.449997 -49.349998 -65.25
66.75 -49.049999 -65.25
67.050003 -49.049999 -65.25
63.450001 -49.950001 -64.650002
63.450001 -49.650002 -64.650002
63.450001 -49.349998 -64.349998
63.75 -49.650002 -64.650002
63.75 -49.349998 -64.349998
74.550003 -57.450001 -66.150002
74.849998 -57.450001 -66.150002
75.150002 -57.450001 -66.150002
75.449997 -57.450001 -66.150002
76.349998 -57.450001 -66.75
76.349998 -57.150002 -66.75
76.650002 -57.150002 -66.75
75.75 -57.450001 -66.449997
76.050003 -57.450001 -66.449997
67.349998 -49.049999 -65.25
67.650002 -49.049999 -65.25
67.650002 -48.75 -64.949997
67.949997 -49.049999 -65.25
68.25 -49.049999 -65.25
67.949997 -48.75 -64.949997
67.949997 -48.450001 -64.949997
68.25 -48.450001 -64.949997
68.849998 -48.75 -65.550003
69.150002 -48.75 -65.550003
69.449997 -48.75 -65.550003
68.550003 -48.75 -65.25
68.550003 -48.450001 -64.949997
69.75 -48.75 -65.849998
70.050003 -48.75 -65.849998
70.349998 -48.450001 -65.849998
70.650002 -48.450001 -65.849998
70.650002 -48.150002 -65.550003
70.949997 -48.450001 -65.849998
71.25 -48.450001 -65.849998
71.25 -48.150002 -65.550003
71.550003 -48.450001 -65.849998
67.349998 -48.75 -64.650002
62.549999 -42.75 -65.550003
62.849998 -42.75 -65.550003
63.150002 -42.75 -65.550003
63.450001 -42.450001 -65.550003
62.549999 -42.75 -65.25
63.75 -42.450001 -65.550003
64.050003 -42.450001 -65.550003
64.650002 -42.450001 -65.849998
64.349998 -42.450001 -65.550003
64.650002 -42.450001 -65.550003
64.949997 -42.450001 -65.849998
65.25 -42.450001 -65.849998
65.550003 -42.150002 -65.849998
65.849998 -42.150002 -65.849998
66.150002 -42.150002 -65.849998
66.449997 -42.150002 -65.849998
66.75 -42.150002 -65.849998
67.050003 -42.150002 -65.849998
71.550003 -47.849998 -65.25
71.849998 -47.849998 -65.25
74.25 -47.849998 -66.75
73.650002 -47.849998 -66.150002
73.949997 -47.849998 -66.150002
74.25 -47.849998 -66.150002
72.75 -47.849998 -65.550003
73.050003 -47.849998 -65.550003
72.150002 -47.849998 -65.25
72.449997 -47.849998 -65.25
73.349998 -47.549999 -65.550003
73.650002 -47.549999 -65.550003
74.550003 -47.849998 -66.75
74.849998 -47.849998 -66.449997
75.150002 -47.849998 -66.150002
75.150002 -47.549999 -66.150002
75.449997 -47.549999 -66.150002
75.75 -47.549999 -66.449997
76.050003 -47.549999 -66.449997
76.349998 -47.549999 -66.449997
76.650002 -47.549999 -66.449997
75.75 -47.25 -66.150002
75.75 -47.25 -65.849998
68.25 -41.849998 -66.449997
68.25 -41.849998 -66.150002
68.550003 -41.849998 -66.449997
68.849998 -41.849998 -66.449997
69.150002 -41.549999 -66.449997
69.449997 -41.549999 -66.449997
67.349998 -41.849998 -65.849998
67.650002 -41.849998 -65.849998
67.949997 -41.849998 -65.849998
70.349998 -41.549999 -66.75
69.75 -41.549999 -66.449997
70.050003 -41.549999 -66.449997
69.75 -41.549999 -66.150002
70.349998 -41.549999 -66.449997
70.650002 -41.549999 -66.449997
71.25 -41.25 -66.75
70.949997 -41.549999 -66.449997
70.949997 -41.25 -66.449997
71.550003 -41.25 -66.449997
71.849998 -41.25 -66.449997
72.150002 -41.25 -66.75
72.449997 -41.25 -66.75
72.75 -41.25 -66.75
72.75 -40.950001 -66.75
38.549999 -74.550003 -42.150002
38.549999 -74.25 -42.450001
38.549999 -74.25 -42.150002
5.25 -37.349998 -57.75
8.25 -33.450001 -58.950001
8.5500002 -33.450001 -59.25
7.9499998 -33.450001 -58.650002
8.25 -33.450001 -58.650002
7.9499998 -33.450001 -58.349998
7.0500002 -29.549999 -57.75
7.3499999 -29.549999 -57.75
9.4499998 -28.950001 -58.049999
10.65 -36.150002 -58.049999
10.65 -36.450001 -57.75
10.95 -36.150002 -58.349998
16.049999 -35.25 -58.950001
16.35 -35.25 -59.25
16.950001 -35.25 -59.25
19.049999 -34.650002 -59.849998
13.95 -32.25 -59.549999
9.75 -28.950001 -58.049999
18.450001 -31.35 -60.150002
18.75 -31.049999 -60.150002
16.049999 -31.65 -59.849998
16.35 -31.65 -59.849998
17.85 -31.65 -58.950001
18.15 -31.35 -59.849998
18.450001 -31.35 -59.549999
18.15 -31.35 -59.25
18.75 -31.049999 -59.849998
6.75 -23.85 -58.049999
5.25 -21.15 -57.75
5.5500002 -20.85 -58.049999
6.1500001 -20.85 -58.349998
11.85 -28.65 -58.349998
14.25 -28.35 -59.25
12.15 -28.65 -58.650002
14.55 -28.35 -59.25
17.85 -27.75 -59.549999
17.25 -27.75 -59.25
18.450001 -27.75 -59.849998
18.15 -27.75 -59.549999
11.55 -22.950001 -58.650002
12.15 -19.950001 -59.549999
16.950001 -21.75 -60.150002
16.35 -22.049999 -59.849998
16.65 -21.75 -59.849998
22.950001 -34.049999 -60.150002
23.25 -34.049999 -60.150002
23.549999 -33.75 -60.150002
23.85 -33.75 -60.150002
22.049999 -36.150002 -58.349998
22.049999 -36.75 -58.049999
21.75 -37.049999 -57.75
22.049999 -36.450001 -58.049999
22.049999 -36.150002 -58.049999
19.65 -34.650002 -59.849998
21.15 -34.049999 -58.349998
21.15 -34.349998 -57.75
21.15 -33.75 -58.049999
21.15 -34.049999 -57.75
21.75 -34.349998 -59.849998
22.049999 -34.049999 -59.849998
22.35 -34.049999 -59.849998
22.65 -34.049999 -59.849998
22.049999 -35.849998 -58.349998
25.950001 -37.349998 -59.25
27.75 -36.150002 -58.950001
27.75 -35.849998 -59.25
27.75 -35.849998 -58.950001
19.35 -31.049999 -60.150002
19.65 -31.049999 -60.150002
19.35 -30.75 -60.150002
19.950001 -30.75 -60.450001
19.950001 -31.049999 -60.150002
20.25 -30.75 -60.150002
20.549999 -30.75 -60.450001
22.35 -30.450001 -60.75
23.25 -30.15 -60.75
22.950001 -30.15 -60.450001
22.35 -33.450001 -57.75
22.35 -32.849998 -58.049999
21.75 -30.15 -57.75
22.049999 -28.950001 -58.349998
22.950001 -28.950001 -58.650002
25.950001 -33.450001 -60.150002
26.549999 -33.450001 -60.150002
28.049999 -33.150002 -60.450001
28.35 -32.849998 -60.450001
28.65 -32.849998 -60.450001
25.35 -29.85 -60.75
25.65 -29.85 -60.75
25.950001 -29.549999 -60.75
26.25 -29.549999 -60.75
28.049999 -29.25 -61.049999
28.65 -28.950001 -61.049999
28.049999 -32.849998 -59.849998
28.049999 -32.849998 -59.549999
28.65 -29.85 -59.849998
28.65 -29.549999 -59.849998
31.65 -37.950001 -59.549999
31.65 -38.25 -58.950001
31.950001 -34.950001 -59.25
31.950001 -34.650002 -59.549999
36.450001 -37.950001 -61.650002
36.75 -37.950001 -61.650002
38.25 -37.650002 -61.349998
37.349998 -37.049999 -61.349998
37.650002 -36.450001 -61.349998
37.349998 -37.650002 -61.049999
37.650002 -37.650002 -61.049999
37.950001 -37.650002 -61.049999
38.25 -37.650002 -61.049999
38.25 -37.650002 -60.75
38.25 -37.349998 -60.75
37.349998 -36.75 -61.049999
38.25 -37.049999 -61.049999
37.650002 -36.450001 -61.049999
38.25 -35.849998 -61.349998
38.25 -35.25 -61.349998
36.450001 -34.950001 -60.150002
37.950001 -35.849998 -61.049999
36.450001 -34.650002 -60.150002
36.450001 -35.25 -59.849998
36.450001 -34.950001 -59.849998
28.950001 -32.849998 -60.75
29.25 -32.849998 -60.75
29.85 -32.549999 -60.75
28.950001 -28.950001 -61.049999
32.849998 -29.25 -60.150002
37.049999 -31.35 -61.349998
37.650002 -31.35 -61.650002
37.349998 -31.35 -61.349998
37.349998 -31.35 -61.049999
37.950001 -31.049999 -61.650002
38.25 -31.049999 -61.650002
38.25 -31.049999 -61.349998
37.049999 -29.25 -60.450001
37.349998 -28.950001 -60.75
37.349998 -29.25 -60.450001
22.65 -26.85 -60.150002
23.549999 -26.85 -60.150002
22.049999 -28.35 -58.950001
22.950001 -28.35 -58.950001
21.75 -27.15 -59.849998
21.75 -27.15 -59.549999
22.35 -27.15 -59.849998
22.65 -26.85 -59.849998
22.950001 -27.450001 -59.849998
22.950001 -27.15 -59.849998
23.25 -27.450001 -59.549999
23.25 -26.85 -59.849998
23.25 -27.450001 -59.25
22.049999 -28.65 -58.650002
22.049999 -28.35 -58.650002
22.049999 -28.65 -58.349998
22.35 -24.450001 -59.549999
22.35 -25.049999 -59.25
23.549999 -25.65 -58.349998
24.15 -27.75 -60.450001
24.15 -26.85 -60.150002
24.450001 -26.549999 -60.150002
25.049999 -26.549999 -60.150002
25.65 -26.85 -60.75
27.15 -25.950001 -61.049999
27.450001 -25.950001 -61.049999
26.85 -26.25 -60.150002
28.65 -27.75 -59.849998
19.65 -21.15 -60.450001
22.65 -20.549999 -60.75
22.35 -20.549999 -60.450001
23.25 -20.549999 -60.75
23.85 -20.25 -60.75
23.85 -22.950001 -59.25
23.85 -22.950001 -58.950001
23.85 -22.35 -59.25
23.85 -22.049999 -59.25
21.15 -20.85 -58.950001
21.450001 -20.85 -58.950001
21.15 -20.549999 -58.950001
21.15 -20.25 -58.950001
21.15 -19.950001 -58.950001
21.15 -19.65 -58.950001
23.85 -21.450001 -59.549999
25.65 -19.950001 -60.75
25.950001 -19.950001 -61.049999
25.950001 -19.950001 -60.75
26.85 -19.65 -61.049999
26.549999 -19.65 -60.75
27.450001 -19.65 -61.049999
27.75 -19.35 -61.049999
28.049999 -19.35 -61.049999
28.35 -19.35 -61.049999
28.65 -19.35 -61.049999
30.450001 -28.65 -61.349998
31.049999 -28.65 -61.349998
28.950001 -27.450001 -60.150002
28.950001 -26.85 -60.150002
28.950001 -26.549999 -60.150002
31.65 -28.35 -61.349998
32.25 -28.35 -61.349998
32.549999 -28.35 -61.349998
32.849998 -28.049999 -61.349998
33.150002 -28.049999 -61.349998
31.35 -28.65 -61.049999
31.950001 -28.35 -61.049999
32.849998 -28.65 -60.150002
30.450001 -24.15 -61.349998
28.950001 -24.75 -61.049999
29.85 -24.450001 -61.049999
30.15 -24.15 -61.049999
28.950001 -27.450001 -59.849998
31.049999 -25.35 -58.950001
31.049999 -24.75 -58.950001
33.150002 -26.25 -59.849998
31.35 -24.75 -58.950001
31.35 -24.450001 -59.25
31.35 -24.15 -59.25
37.349998 -28.65 -60.450001
35.849998 -24.75 -61.349998
35.25 -25.049999 -61.049999
35.549999 -25.049999 -61.049999
35.849998 -25.049999 -61.049999
36.150002 -24.75 -61.349998
36.450001 -24.75 -61.349998
36.75 -24.75 -61.349998
37.049999 -24.75 -61.349998
37.349998 -24.75 -61.650002
37.650002 -24.75 -61.349998
37.650002 -24.450001 -61.349998
37.950001 -24.450001 -61.650002
38.25 -24.450001 -61.650002
37.950001 -24.450001 -60.450001
30.450001 -23.85 -61.349998
31.049999 -23.549999 -61.349998
30.75 -23.85 -61.049999
29.549999 -22.049999 -60.150002
32.849998 -22.65 -61.349998
33.150002 -22.35 -61.349998
33.450001 -22.049999 -61.349998
31.35 -23.25 -59.849998
31.35 -23.25 -59.549999
31.35 -22.950001 -59.549999
31.35 -23.85 -59.25
31.35 -23.549999 -59.25
33.75 -22.049999 -61.349998
34.049999 -21.75 -61.349998
34.349998 -21.75 -61.349998
33.75 -22.049999 -61.049999
37.950001 -22.950001 -60.75
17.549999 -19.049999 -60.150002
18.15 -19.049999 -60.450001
18.15 -19.049999 -60.150002
14.85 -18.75 -58.049999
17.25 -19.049999 -59.849998
17.549999 -8.5500002 -58.049999
17.85 -8.25 -58.349998
17.85 -7.9499998 -58.349998
17.549999 -7.6500001 -58.650002
17.549999 -7.6500001 -58.349998
18.15 -6.4499998 -59.25
18.15 -6.1500001 -59.25
18.450001 -5.5500002 -59.25
18.450001 -5.8499999 -58.950001
18.450001 -4.9499998 -59.25
18.450001 -5.25 -58.950001
17.549999 -7.0500002 -58.650002
17.25 -6.1500001 -58.650002
16.950001 -5.5500002 -58.349998
17.25 -5.5500002 -58.349998
16.950001 -5.25 -58.349998
16.950001 -4.9499998 -58.049999
16.65 -4.3499999 -58.950001
16.65 -4.6500001 -58.650002
16.65 -4.3499999 -58.650002
16.65 -4.0500002 -58.650002
16.65 -3.75 -58.650002
16.049999 -2.55 -58.650002
16.35 -2.55 -58.349998
18.75 -4.6500001 -59.549999
18.450001 -4.6500001 -59.25
19.049999 -2.8499999 -59.25
19.049999 -2.55 -59.25
16.950001 -4.6500001 -58.349998
16.049999 -2.25 -58.950001
15.45 -1.95 -57.75
15.45 -1.65 -57.75
16.049999 -2.25 -58.650002
16.049999 -1.95 -58.650002
15.75 -1.35 -57.75
15.45 -0.15000001 -58.349998
14.55 -0.44999999 -57.75
15.75 -0.75 -58.349998
15.75 -0.44999999 -58.650002
15.75 -0.44999999 -58.349998
15.75 -1.05 -57.75
19.049999 -2.25 -59.25
17.85 -0.15000001 -57.75
20.549999 -18.75 -60.150002
20.85 -18.75 -60.150002
21.15 -18.75 -60.450001
21.450001 -18.450001 -60.150002
22.35 -18.450001 -60.75
22.65 -18.450001 -60.75
21.75 -18.450001 -60.450001
22.35 -18.450001 -60.450001
23.25 -18.15 -60.75
23.25 -19.049999 -59.25
23.549999 -19.049999 -59.25
23.549999 -18.15 -58.950001
23.549999 -17.85 -58.950001
23.549999 -17.549999 -58.950001
23.549999 -17.25 -59.25
23.549999 -16.950001 -58.950001
23.85 -16.65 -58.650002
25.049999 -17.85 -60.75
25.35 -10.95 -59.549999
24.75 -10.05 -59.849998
25.35 -10.35 -59.849998
25.35 -10.65 -59.549999
25.35 -10.35 -59.549999
25.35 -10.05 -59.849998
25.65 -10.05 -59.849998
29.85 -19.049999 -61.349998
30.75 -18.75 -61.349998
29.25 -19.049999 -61.049999
29.549999 -19.049999 -61.049999
29.85 -19.049999 -61.049999
30.15 -19.049999 -61.049999
30.450001 -19.049999 -61.049999
28.950001 -17.549999 -61.049999
29.25 -17.25 -61.049999
31.35 -18.75 -61.049999
30.450001 -14.85 -60.150002
30.450001 -14.55 -60.150002
37.950001 -17.25 -61.950001
38.25 -17.25 -61.950001
34.349998 -15.75 -60.75
34.349998 -16.35 -60.450001
34.349998 -16.65 -60.150002
34.349998 -15.75 -60.450001
34.349998 -16.049999 -60.150002
34.349998 -15.45 -60.75
34.349998 -14.85 -60.450001
37.049999 -16.35 -61.650002
36.75 -16.35 -61.349998
37.349998 -16.049999 -61.950001
38.25 -16.049999 -61.950001
37.349998 -16.049999 -61.650002
37.950001 -16.049999 -61.650002
38.25 -16.049999 -61.650002
30.75 -14.25 -60.450001
30.75 -14.25 -60.150002
30.75 -13.95 -60.150002
30.75 -13.65 -60.450001
30.75 -13.35 -60.150002
30.75 -13.05 -60.450001
30.75 -12.75 -60.450001
30.75 -12.45 -60.450001
31.049999 -12.15 -60.450001
30.75 -12.45 -60.150002
31.049999 -11.85 -60.75
31.049999 -10.35 -60.150002
31.049999 -10.05 -60.450001
31.049999 -10.05 -60.150002
31.35 -9.75 -60.75
31.35 -10.05 -60.450001
30.75 -13.05 -59.849998
32.849998 -13.35 -59.549999
32.549999 -13.95 -59.25
32.549999 -13.65 -59.25
32.849998 -11.25 -59.849998
34.650002 -13.35 -60.75
34.650002 -13.35 -60.450001
34.650002 -13.05 -61.049999
34.650002 -12.75 -61.049999
34.650002 -13.05 -60.75
34.650002 -12.45 -61.049999
34.950001 -10.35 -61.349998
34.950001 -10.05 -61.349998
