-126.7037 34.9 -5
-126.7037 75.1393 -10
-126.7037 71.7207 -15
-126.7037 67.0582 -20
-126.7037 62.4839 -25
-126.7037 59.521 -30
-126.7037 59.5245 -35
-126.7037 56.8224 -40
-126.7037 50.5489 -45
-126.7037 27.3485 -50
-126.7037 8.8833 -55
-126.7037 -1.0335 -60
-126.7037 -11.9637 -65
-126.7037 -80.1627 -65
-126.7037 -95.7881 -60
-126.7037 -99.9372 -55
-126.7037 -103.4632 -50
-126.7037 -104.0594 -45
-126.7037 -100.7104 -40
-126.7037 -97.2575 -35
-126.7037 -100.9059 -30
-126.7037 -103.5755 -25
-126.7037 -107.856 -20
-126.7037 -106.7152 -15
-126.7037 -105.9252 -10
-126.7037 -72.1869 -5
-120.8805 36.1992 -5
-120.8805 76.6362 -10
-120.8805 73.449 -15
-120.8805 69.0907 -20
-120.8805 64.2471 -25
-120.8805 61.6832 -30
-120.8805 61.8976 -35
-120.8805 59.7736 -40
-120.8805 53.9384 -45
-120.8805 32.2292 -50
-120.8805 14.5091 -55
-120.8805 6.4307 -60
-120.8805 -0.504 -65
-120.8805 -8.8837 -70
-120.8805 -33.3384 -75
-120.8805 -44.9032 -75
-120.8805 -69.3762 -70
-120.8805 -91.4543 -65
-120.8805 -104.2341 -60
-120.8805 -107.1785 -55
-120.8805 -110.6142 -50
-120.8805 -111.6265 -45
-120.8805 -108.0854 -40
-120.8805 -105.0743 -35
-120.8805 -108.4247 -30
-120.8805 -111.0059 -25
-120.8805 -114.7467 -20
-120.8805 -112.8522 -15
-120.8805 -111.4365 -10
-120.8805 -75.029 -5
-115.0573 37.2532 -5
-115.0573 78.1331 -10
-115.0573 75.1773 -15
-115.0573 71.1233 -20
-115.0573 66.0102 -25
-115.0573 63.8453 -30
-115.0573 64.2706 -35
-115.0573 62.7248 -40
-115.0573 57.3279 -45
-115.0573 36.6952 -50
-115.0573 19.9712 -55
-115.0573 13.4007 -60
-115.0573 6.4501 -65
-115.0573 1.4023 -70
-115.0573 -8.3592 -75
-115.0573 -20.8982 -80
-115.0573 -26.982 -110
-115.0573 -34.2629 -110
-115.0573 -26.1558 -80
-115.0573 -66.16 -75
-115.0573 -85.6088 -70
-115.0573 -100.7849 -65
-115.0573 -110.6112 -60
-115.0573 -113.8555 -55
-115.0573 -117.7652 -50
-115.0573 -119.1935 -45
-115.0573 -115.4604 -40
-115.0573 -113.5468 -35
-115.0573 -115.9434 -30
-115.0573 -118.4363 -25
-115.0573 -121.6375 -20
-115.0573 -118.9893 -15
-115.0573 -116.9477 -10
-115.0573 -77.871 -5
-115.0573 -86.5863 0
-115.0573 -78.7828 0
-109.2341 38.3072 -5
-109.2341 79.63 -10
-109.2341 76.9057 -15
-109.2341 73.1558 -20
-109.2341 67.7734 -25
-109.2341 66.0074 -30
-109.2341 66.6437 -35
-109.2341 65.676 -40
-109.2341 60.7174 -45
-109.2341 41.1613 -50
-109.2341 25.4334 -55
-109.2341 18.6803 -60
-109.2341 13.4042 -65
-109.2341 9.4339 -70
-109.2341 3.7343 -75
-109.2341 -6.3585 -80
-109.2341 -21.3738 -85
-109.2341 -28.3158 -85
-109.2341 -27.3827 -105
-109.2341 -31.9341 -105
-109.2341 -22.6152 -110
-109.2341 -42.7342 -110
-109.2341 -49.3082 -80
-109.2341 -78.4483 -75
-109.2341 -96.8062 -70
-109.2341 -109.2069 -65
-109.2341 -116.8617 -60
-109.2341 -120.5326 -55
-109.2341 -124.9886 -50
-109.2341 -126.7606 -45
-109.2341 -122.8355 -40
-109.2341 -122.0194 -35
-109.2341 -123.4621 -30
-109.2341 -125.8104 -25
-109.2341 -128.6712 -20
-109.2341 -125.4588 -15
-109.2341 -122.5506 -10
-109.2341 -80.7131 -5
-109.2341 -96.7169 0
-109.2341 -94.1073 2
-109.2341 -85.0701 5
-109.2341 -57.2642 5
-109.2341 -51.4932 2
-109.2341 -48.0965 0
-103.411 39.3612 -5
-103.411 80.8024 -10
-103.411 77.4613 -15
-103.411 74.2005 -20
-103.411 68.9396 -25
-103.411 67.0851 -30
-103.411 67.8256 -35
-103.411 67.2398 -40
-103.411 62.631 -45
-103.411 44.3447 -50
-103.411 28.1 -55
-103.411 21.4061 -60
-103.411 15.6784 -65
-103.411 11.6752 -70
-103.411 6.9984 -75
-103.411 -0.0854 -80
-103.411 -9.7726 -85
-103.411 -19.0672 -90
-103.411 -32.2022 -90
-103.411 -23.8616 -100
-103.411 -29.131 -100
-103.411 -23.1222 -105
-103.411 -21.52 -110
-103.411 -34.0809 -115
-103.411 -34.1756 -115
-103.411 -50.2558 -110
-103.411 -42.9256 -105
-103.411 -42.3696 -85
-103.411 -64.4473 -80
-103.411 -90.7366 -75
-103.411 -107.5936 -70
-103.411 -116.8582 -65
-103.411 -123.1123 -60
-103.411 -126.8423 -55
-103.411 -132.301 -50
-103.411 -134.3277 -45
-103.411 -130.2105 -40
-103.411 -130.0251 -35
-103.411 -130.6937 -30
-103.411 -133.0616 -25
-103.411 -135.7512 -20
-103.411 -132.3152 -15
-103.411 -129.7791 -10
-103.411 -83.7657 -5
-103.411 -100.8622 0
-103.411 -99.0827 2
-103.411 -94.2588 5
-103.411 -87.3993 7
-103.411 -43.4836 7
-103.411 -37.9141 5
-103.411 -35.1418 2
-103.411 -31.615 0
-97.5878 -28.6095 7
-97.5878 -21.7625 5
-97.5878 -20.0213 2
-97.5878 -20.298 0
-97.5878 40.4946 -5
-97.5878 80.9813 -10
-97.5878 77.9353 -15
-97.5878 75.1764 -20
-97.5878 70.0642 -25
-97.5878 68.0873 -30
-97.5878 68.9245 -35
-97.5878 68.7069 -40
-97.5878 64.4416 -45
-97.5878 47.4388 -50
-97.5878 30.5717 -55
-97.5878 23.9539 -60
-97.5878 17.6265 -65
-97.5878 13.513 -70
-97.5878 9.6471 -75
-97.5878 4.8253 -80
-97.5878 -4.339 -85
-97.5878 -13.068 -90
-97.5878 -18.2797 -95
-97.5878 -19.4536 -100
-97.5878 -19.915 -105
-97.5878 -20.7182 -110
-97.5878 -29.7142 -115
-97.5878 -43.5573 -115
-97.5878 -53.4282 -110
-97.5878 -48.2582 -105
-97.5878 -40.8978 -100
-97.5878 -36.1516 -95
-97.5878 -42.7859 -90
-97.5878 -51.7719 -85
-97.5878 -77.2666 -80
-97.5878 -102.0806 -75
-97.5878 -117.6455 -70
-97.5878 -123.8605 -65
-97.5878 -128.3155 -60
-97.5878 -133.0153 -55
-97.5878 -139.6134 -50
-97.5878 -142.0144 -45
-97.5878 -138.808 -40
-97.5878 -137.6869 -35
-97.5878 -137.9118 -30
-97.5878 -140.3128 -25
-97.5878 -142.8311 -20
-97.5878 -139.1717 -15
-97.5878 -137.0075 -10
-97.5878 -87.6436 -5
-97.5878 -103.151 0
-97.5878 -100.6622 2
-97.5878 -98.1117 5
-97.5878 -93.3472 7
-97.5878 -89.7002 10
-97.5878 -77.0426 12
-97.5878 -62.1548 12
-97.5878 -36.7913 10
-91.7646 -19.1876 10
-91.7646 -11.6237 7
-91.7646 -7.8234 5
-91.7646 -6.8494 2
-91.7646 -4.6028 0
-91.7646 41.6893 -5
-91.7646 81.1602 -10
-91.7646 78.4092 -15
-91.7646 75.9943 -20
-91.7646 71.1887 -25
-91.7646 69.0894 -30
-91.7646 70.0234 -35
-91.7646 70.174 -40
-91.7646 66.2523 -45
-91.7646 50.5328 -50
-91.7646 32.6284 -55
-91.7646 25.4656 -60
-91.7646 18.7095 -65
-91.7646 14.2451 -70
-91.7646 10.5985 -75
-91.7646 6.0633 -80
-91.7646 -1.1937 -85
-91.7646 -8.3534 -90
-91.7646 -14.0638 -95
-91.7646 -15.9739 -100
-91.7646 -17.8553 -105
-91.7646 -19.9164 -110
-91.7646 -27.5962 -115
-91.7646 -52.0285 -115
-91.7646 -56.6006 -110
-91.7646 -52.0554 -105
-91.7646 -47.1624 -100
-91.7646 -45.799 -95
-91.7646 -49.0644 -90
-91.7646 -61.1742 -85
-91.7646 -90.0859 -80
-91.7646 -112.9932 -75
-91.7646 -125.4206 -70
-91.7646 -129.1747 -65
-91.7646 -133.3479 -60
-91.7646 -139.1756 -55
-91.7646 -146.9942 -50
-91.7646 -150.2404 -45
-91.7646 -148.0982 -40
-91.7646 -145.3487 -35
-91.7646 -145.13 -30
-91.7646 -147.564 -25
-91.7646 -149.9177 -20
-91.7646 -146.0281 -15
-91.7646 -144.236 -10
-91.7646 -91.5215 -5
-91.7646 -102.3378 0
-91.7646 -100.2856 2
-91.7646 -98.1748 5
-91.7646 -94.6593 7
-91.7646 -89.9524 10
-91.7646 -82.7201 12
-91.7646 -38.8948 12
-85.9414 -22.378 15
-85.9414 -12.2817 15
-85.9414 -8.1311 12
-85.9414 -5.8469 10
-85.9414 -4.6976 7
-85.9414 -2.9885 5
-85.9414 -2.026 2
-85.9414 -0.4971 0
-85.9414 42.884 -5
-85.9414 81.0064 -10
-85.9414 78.8831 -15
-85.9414 76.645 -20
-85.9414 72.3133 -25
-85.9414 70.0915 -30
-85.9414 71.1223 -35
-85.9414 71.6412 -40
-85.9414 68.0629 -45
-85.9414 53.6269 -50
-85.9414 34.4276 -55
-85.9414 26.4341 -60
-85.9414 19.3183 -65
-85.9414 14.5034 -70
-85.9414 11.2469 -75
-85.9414 7.0927 -80
-85.9414 1.2812 -85
-85.9414 -6.3249 -90
-85.9414 -10.1295 -95
-85.9414 -13.7778 -100
-85.9414 -15.9481 -105
-85.9414 -17.8836 -110
-85.9414 -26.7944 -115
-85.9414 -39.4519 -120
-85.9414 -41.5275 -120
-85.9414 -55.2922 -115
-85.9414 -59.773 -110
-85.9414 -55.794 -105
-85.9414 -51.9823 -100
-85.9414 -51.2558 -95
-85.9414 -56.1048 -90
-85.9414 -69.153 -85
-85.9414 -100.6445 -80
-85.9414 -123.9057 -75
-85.9414 -131.722 -70
-85.9414 -134.4889 -65
-85.9414 -138.3804 -60
-85.9414 -145.246 -55
-85.9414 -154.3847 -50
-85.9414 -158.4664 -45
-85.9414 -156.5578 -40
-85.9414 -152.7089 -35
-85.9414 -151.4068 -30
-85.9414 -153.1061 -25
-85.9414 -156.895 -20
-85.9414 -155.763 -15
-85.9414 -154.2372 -10
-85.9414 -95.3993 -5
-85.9414 -100.62 0
-85.9414 -98.7517 2
-85.9414 -96.8201 5
-85.9414 -92.8764 7
-85.9414 -88.9508 10
-85.9414 -84.5165 12
-80.1182 -29.5901 15
-80.1182 -24.3408 17
-80.1182 -11.4806 17
-80.1182 -6.8894 15
-80.1182 -4.525 12
-80.1182 -3.208 10
-80.1182 -2.1104 7
-80.1182 -1.0973 5
-80.1182 -0.1856 2
-80.1182 1.1549 0
-80.1182 44.0786 -5
-80.1182 80.8368 -10
-80.1182 79.357 -15
-80.1182 77.2967 -20
-80.1182 73.4362 -25
-80.1182 71.1109 -30
-80.1182 72.2212 -35
-80.1182 73.0886 -40
-80.1182 69.8274 -45
-80.1182 56.701 -50
-80.1182 36.259 -55
-80.1182 27.3472 -60
-80.1182 19.8477 -65
-80.1182 14.6337 -70
-80.1182 12.0778 -75
-80.1182 8.4098 -80
-80.1182 3.3697 -85
-80.1182 -4.2964 -90
-80.1182 -7.7961 -95
-80.1182 -11.7254 -100
-80.1182 -14.1866 -105
-80.1182 -15.6391 -110
-80.1182 -25.9927 -115
-80.1182 -35.0852 -120
-80.1182 -50.1651 -120
-80.1182 -58.4646 -115
-80.1182 -62.5118 -110
-80.1182 -58.8302 -105
-80.1182 -56.071 -100
-80.1182 -56.0507 -95
-80.1182 -63.0449 -90
-80.1182 -77.0308 -85
-80.1182 -110.2695 -80
-80.1182 -129.6651 -75
-80.1182 -137.2514 -70
-80.1182 -139.4384 -65
-80.1182 -143.1712 -60
-80.1182 -151.338 -55
-80.1182 -160.8052 -50
-80.1182 -165.2234 -45
-80.1182 -163.2596 -40
-80.1182 -159.3012 -35
-80.1182 -157.0822 -30
-80.1182 -158.5537 -25
-80.1182 -162.9896 -20
-80.1182 -164.581 -15
-80.1182 -164.4685 -10
-80.1182 -100.031 -5
-80.1182 -98.8603 0
-80.1182 -97.2178 2
-80.1182 -94.7764 5
-80.1182 -91.0451 7
-80.1182 -86.5519 10
-80.1182 -83.0342 12
-74.295 -33.1214 15
-74.295 -30.4621 17
-74.295 -6.7747 17
-74.295 -5.3564 15
-74.295 -2.8951 12
-74.295 -1.7449 10
-74.295 -0.517 7
-74.295 0.5419 5
-74.295 1.0411 2
-74.295 2.4077 0
-74.295 45.2733 -5
-74.295 80.6728 -10
-74.295 79.7834 -15
-74.295 78.0314 -20
-74.295 74.4611 -25
-74.295 72.2505 -30
-74.295 73.12 -35
-74.295 74.2936 -40
-74.295 71.132 -45
-74.295 59.4899 -50
-74.295 38.2626 -55
-74.295 27.9836 -60
-74.295 19.9721 -65
-74.295 14.3442 -70
-74.295 13.1883 -75
-74.295 10.0282 -80
-74.295 5.3451 -85
-74.295 -2.2678 -90
-74.295 -6.3828 -95
-74.295 -9.9418 -100
-74.295 -12.4252 -105
-74.295 -13.3945 -110
-74.295 -23.8324 -115
-74.295 -34.1507 -120
-74.295 -56.4095 -120
-74.295 -61.637 -115
-74.295 -64.4862 -110
-74.295 -61.8665 -105
-74.295 -59.9185 -100
-74.295 -61.1821 -95
-74.295 -69.0119 -90
-74.295 -84.9449 -85
-74.295 -119.8946 -80
-74.295 -135.0872 -75
-74.295 -140.9506 -70
-74.295 -143.5235 -65
-74.295 -147.3888 -60
-74.295 -157.4618 -55
-74.295 -166.5801 -50
-74.295 -170.0527 -45
-74.295 -169.9613 -40
-74.295 -165.3988 -35
-74.295 -162.7576 -30
-74.295 -163.7952 -25
-74.295 -166.8443 -20
-74.295 -168.2748 -15
-74.295 -167.8132 -10
-74.295 -113.5416 -5
-74.295 -144.4747 0
-74.295 -140.9569 2
-74.295 -121.2561 2
-74.295 -112.7145 0
-74.295 -97.1006 0
-74.295 -95.1655 2
-74.295 -92.6546 5
-74.295 -88.5797 7
-74.295 -84.153 10
-74.295 -79.8866 12
-68.4718 -34.6574 15
-68.4718 -27.1841 17
-68.4718 -5.3806 17
-68.4718 -4.1386 15
-68.4718 -1.2652 12
-68.4718 -0.2818 10
-68.4718 0.9487 7
-68.4718 1.529 5
-68.4718 2.2848 2
-68.4718 3.5686 0
-68.4718 46.468 -5
-68.4718 80.5117 -10
-68.4718 80.2097 -15
-68.4718 78.7661 -20
-68.4718 75.486 -25
-68.4718 73.39 -30
-68.4718 73.9447 -35
-68.4718 75.4985 -40
-68.4718 72.4366 -45
-68.4718 62.2788 -50
-68.4718 40.2661 -55
-68.4718 28.62 -60
-68.4718 20.0966 -65
-68.4718 14.0547 -70
-68.4718 14.2988 -75
-68.4718 11.6465 -80
-68.4718 7.3205 -85
-68.4718 -0.1783 -90
-68.4718 -4.2089 -95
-68.4718 -8.1582 -100
-68.4718 -10.582 -105
-68.4718 -11.1499 -110
-68.4718 -21.5878 -115
-68.4718 -33.3489 -120
-68.4718 -44.8228 -125
-68.4718 -48.3015 -125
-68.4718 -59.5819 -120
-68.4718 -64.0512 -115
-68.4718 -66.4605 -110
-68.4718 -64.6388 -105
-68.4718 -63.4101 -100
-68.4718 -66.3799 -95
-68.4718 -74.9789 -90
-68.4718 -95.5873 -85
-68.4718 -127.1802 -80
-68.4718 -138.797 -75
-68.4718 -144.6497 -70
-68.4718 -147.6085 -65
-68.4718 -151.6064 -60
-68.4718 -162.027 -55
-68.4718 -171.3745 -50
-68.4718 -174.8821 -45
-68.4718 -173.5928 -40
-68.4718 -169.7149 -35
-68.4718 -168.0932 -30
-68.4718 -168.9078 -25
-68.4718 -170.3821 -20
-68.4718 -171.2859 -15
-68.4718 -170.2975 -10
-68.4718 -129.1375 -5
-68.4718 -158.9522 0
-68.4718 -157.8856 2
-68.4718 -154.6648 5
-68.4718 -152.849 7
-68.4718 -145.6177 10
-68.4718 -117.216 10
-68.4718 -113.1185 7
-68.4718 -106.8415 5
-68.4718 -103.9537 2
-68.4718 -101.0225 0
-68.4718 -94.5125 0
-68.4718 -92.4529 2
-68.4718 -89.6797 5
-68.4718 -86.0324 7
-68.4718 -81.5866 10
-68.4718 -75.872 12
-62.6487 -34.5136 15
-62.6487 -23.9753 17
-62.6487 -4.513 17
-62.6487 -3.2367 15
-62.6487 0.3647 12
-62.6487 1.1704 10
-62.6487 2.1952 7
-62.6487 2.516 5
-62.6487 3.5913 2
-62.6487 4.6832 0
-62.6487 47.6626 -5
-62.6487 80.5038 -10
-62.6487 80.6359 -15
-62.6487 79.5008 -20
-62.6487 76.5109 -25
-62.6487 74.5296 -30
-62.6487 74.7694 -35
-62.6487 76.7035 -40
-62.6487 73.7412 -45
-62.6487 65.0676 -50
-62.6487 42.2697 -55
-62.6487 29.7892 -60
-62.6487 20.5064 -65
-62.6487 14.8663 -70
-62.6487 15.988 -75
-62.6487 13.2649 -80
-62.6487 8.6755 -85
-62.6487 1.9589 -90
-62.6487 -2.035 -95
-62.6487 -5.8624 -100
-62.6487 -6.0495 -105
-62.6487 -5.8399 -110
-62.6487 -19.3433 -115
-62.6487 -31.5208 -120
-62.6487 -41.5069 -125
-62.6487 -56.7728 -125
-62.6487 -62.7543 -120
-62.6487 -66.0256 -115
-62.6487 -68.4349 -110
-62.6487 -67.216 -105
-62.6487 -67.0333 -100
-62.6487 -71.6491 -95
-62.6487 -80.9459 -90
-62.6487 -105.6633 -85
-62.6487 -132.2503 -80
-62.6487 -141.9168 -75
-62.6487 -147.8198 -70
-62.6487 -150.9715 -65
-62.6487 -155.3945 -60
-62.6487 -165.2047 -55
-62.6487 -174.2946 -50
-62.6487 -178.7097 -45
-62.6487 -176.6019 -40
-62.6487 -174.031 -35
-62.6487 -172.2706 -30
-62.6487 -173.3147 -25
-62.6487 -173.92 -20
-62.6487 -174.2971 -15
-62.6487 -172.7818 -10
-62.6487 -139.8401 -5
-62.6487 -161.7846 0
-62.6487 -160.923 2
-62.6487 -158.3395 5
-62.6487 -155.7292 7
-62.6487 -153.7413 10
-62.6487 -147.3076 12
-62.6487 -146.7068 15
-62.6487 -145.5226 17
-62.6487 -142.6853 20
-62.6487 -137.8977 22
-62.6487 -128.643 22
-62.6487 -123.9162 20
-62.6487 -114.411 12
-62.6487 -119.259 17
-62.6487 -116.5035 15
-62.6487 -101.4852 10
-62.6487 -95.2596 7
-62.6487 -93.0708 5
-62.6487 -86.5492 5
-62.6487 -82.8771 7
-62.6487 -77.6086 10
-62.6487 -71.8573 12
-56.8255 -32.7918 15
-56.8255 -21.4106 17
-56.8255 -3.8744 17
-56.8255 -2.3883 15
-56.8255 1.3775 12
-56.8255 2.3049 10
-56.8255 3.4417 7
-56.8255 3.568 5
-56.8255 4.9941 2
-56.8255 5.8722 0
-56.8255 48.8573 -5
-56.8255 80.7705 -10
-56.8255 81.0622 -15
-56.8255 80.2355 -20
-56.8255 77.5358 -25
-56.8255 75.6692 -30
-56.8255 75.5941 -35
-56.8255 77.9085 -40
-56.8255 75.0459 -45
-56.8255 67.8565 -50
-56.8255 44.2733 -55
-56.8255 31.3395 -60
-56.8255 21.14 -65
-56.8255 16.357 -70
-56.8255 17.9225 -75
-56.8255 14.8833 -80
-56.8255 9.9556 -85
-56.8255 4.0961 -90
-56.8255 0.139 -95
-56.8255 -3.2638 -100
-56.8255 -1.517 -105
-56.8255 1.5939 -110
-56.8255 -15.5958 -115
-56.8255 -29.2762 -120
-56.8255 -40.7051 -125
-56.8255 -60.6991 -125
-56.8255 -65.1891 -120
-56.8255 -67.9999 -115
-56.8255 -70.4092 -110
-56.8255 -69.7931 -105
-56.8255 -70.9063 -100
-56.8255 -76.392 -95
-56.8255 -86.089 -90
-56.8255 -109.8276 -85
-56.8255 -136.7452 -80
-56.8255 -145.0367 -75
-56.8255 -149.8662 -70
-56.8255 -152.8971 -65
-56.8255 -157.7156 -60
-56.8255 -167.9153 -55
-56.8255 -176.831 -50
-56.8255 -181.533 -45
-56.8255 -179.6111 -40
-56.8255 -176.3893 -35
-56.8255 -175.8897 -30
-56.8255 -175.6913 -25
-56.8255 -176.5976 -20
-56.8255 -176.1991 -15
-56.8255 -174.1738 -10
-56.8255 -150.5426 -5
-56.8255 -161.1149 0
-56.8255 -159.574 2
-56.8255 -158.3766 5
-56.8255 -157.2719 7
-56.8255 -156.5382 10
-56.8255 -154.0647 12
-56.8255 -153.5724 15
-56.8255 -153.1629 17
-56.8255 -152.2998 20
-56.8255 -151.8001 22
-56.8255 -151.2628 25
-56.8255 -150.1466 27
-56.8255 -149.7418 30
-56.8255 -147.7668 32
-56.8255 -146.2587 35
-56.8255 -144.9608 37
-56.8255 -141.6045 40
-56.8255 -136.1525 40
-56.8255 -124.2242 37
-56.8255 -118.1532 35
-56.8255 -114.7533 32
-56.8255 -112.1877 30
-56.8255 -110.9571 27
-56.8255 -109.7663 25
-56.8255 -108.6104 22
-56.8255 -107.0122 20
-56.8255 -104.095 17
-56.8255 -101.1047 15
-56.8255 -99.5931 12
-56.8255 -84.8611 10
-56.8255 -75.495 10
-56.8255 -68.8003 12
-51.0023 -31.0816 15
-51.0023 -19.1767 17
-51.0023 -3.0522 17
-51.0023 -1.5481 15
-51.0023 2.2786 12
-51.0023 3.4394 10
-51.0023 4.6473 7
-51.0023 4.6859 5
-51.0023 6.345 2
-51.0023 7.1385 0
-51.0023 50.052 -5
-51.0023 81.1635 -10
-51.0023 81.6059 -15
-51.0023 81.069 -20
-51.0023 78.6231 -25
-51.0023 76.8436 -30
-51.0023 76.4188 -35
-51.0023 79.1039 -40
-51.0023 76.3862 -45
-51.0023 70.6266 -50
-51.0023 46.3834 -55
-51.0023 33.0483 -60
-51.0023 21.7736 -65
-51.0023 18.0059 -70
-51.0023 19.9271 -75
-51.0023 16.5999 -80
-51.0023 11.4022 -85
-51.0023 6.357 -90
-51.0023 2.5141 -95
-51.0023 -0.3504 -100
-51.0023 3.2143 -105
-51.0023 12.3847 -110
-51.0023 -9.2761 -115
-51.0023 -27.0316 -120
-51.0023 -39.2092 -125
-51.0023 -50.1938 -130
-51.0023 -54.9093 -130
-51.0023 -63.8715 -125
-51.0023 -67.1634 -120
-51.0023 -69.9743 -115
-51.0023 -72.3836 -110
-51.0023 -72.3702 -105
-51.0023 -74.3454 -100
-51.0023 -80.7763 -95
-51.0023 -90.8477 -90
-51.0023 -113.9919 -85
-51.0023 -139.3957 -80
-51.0023 -145.899 -75
-51.0023 -151.9127 -70
-51.0023 -154.8227 -65
-51.0023 -160.0368 -60
-51.0023 -170.0917 -55
-51.0023 -178.5984 -50
-51.0023 -182.7871 -45
-51.0023 -181.1517 -40
-51.0023 -178.1302 -35
-51.0023 -178.0111 -30
-51.0023 -178.022 -25
-51.0023 -178.6289 -20
-51.0023 -176.6062 -15
-51.0023 -174.1579 -10
-51.0023 -154.2655 -5
-51.0023 -159.7627 0
-51.0023 -158.9503 2
-51.0023 -158.5897 5
-51.0023 -159.2325 7
-51.0023 -159.2624 10
-51.0023 -159.3301 12
-51.0023 -159.2121 15
-51.0023 -158.7648 17
-51.0023 -158.6467 20
-51.0023 -158.4789 22
-51.0023 -158.1562 25
-51.0023 -157.9269 27
-51.0023 -157.7139 30
-51.0023 -157.2038 32
-51.0023 -156.7976 35
-51.0023 -156.4351 37
-51.0023 -145.8223 40
-51.0023 -135.891 42
-51.0023 -126.5721 45
-51.0023 -124.4753 45
-51.0023 -114.4054 42
-51.0023 -110.2253 40
-51.0023 -106.2153 37
-51.0023 -103.9169 35
-51.0023 -99.0467 32
-51.0023 -97.1227 30
-51.0023 -95.8829 27
-51.0023 -94.3967 25
-51.0023 -91.84 22
-51.0023 -88.5551 20
-51.0023 -82.5937 17
-51.0023 -72.7968 15
-45.1791 -29.8665 15
-45.1791 -16.9119 17
-45.1791 -2.2047 17
-45.1791 -1.1012 15
-45.1791 3.0341 12
-45.1791 4.533 10
-45.1791 5.6098 7
-45.1791 5.8038 5
-45.1791 7.3681 2
-45.1791 8.2908 0
-45.1791 51.3348 -5
-45.1791 83.218 -10
-45.1791 83.6957 -15
-45.1791 83.2027 -20
-45.1791 80.5309 -25
-45.1791 78.4751 -30
-45.1791 77.6351 -35
-45.1791 80.174 -40
-45.1791 78.1963 -45
-45.1791 73.1495 -50
-45.1791 49.8949 -55
-45.1791 36.8408 -60
-45.1791 25.7433 -65
-45.1791 21.737 -70
-45.1791 22.854 -75
-45.1791 19.6087 -80
-45.1791 15.0387 -85
-45.1791 10.2443 -90
-45.1791 7.5355 -95
-45.1791 6.7027 -100
-45.1791 11.1004 -105
-45.1791 26.6474 -110
-45.1791 1.5149 -115
-45.1791 -21.9898 -120
-45.1791 -36.9646 -125
-45.1791 -48.0613 -130
-45.1791 -61.8165 -130
-45.1791 -66.3269 -125
-45.1791 -69.1378 -120
-45.1791 -71.9486 -115
-45.1791 -73.6101 -110
-45.1791 -74.9473 -105
-45.1791 -77.1842 -100
-45.1791 -84.1288 -95
-45.1791 -95.6064 -90
-45.1791 -115.9528 -85
-45.1791 -139.9946 -80
-45.1791 -146.5587 -75
-45.1791 -153.8477 -70
-45.1791 -156.364 -65
-45.1791 -162.358 -60
-45.1791 -172.0691 -55
-45.1791 -180.3658 -50
-45.1791 -183.9427 -45
-45.1791 -182.259 -40
-45.1791 -179.8711 -35
-45.1791 -179.5464 -30
-45.1791 -178.6434 -25
-45.1791 -180.0251 -20
-45.1791 -177.0133 -15
-45.1791 -174.1421 -10
-45.1791 -156.7392 -5
-45.1791 -158.5164 0
-45.1791 -158.526 2
-45.1791 -158.327 5
-45.1791 -158.4972 7
-45.1791 -158.4877 10
-45.1791 -158.7759 12
-45.1791 -158.306 15
-45.1791 -158.341 17
-45.1791 -158.0681 20
-45.1791 -158.0132 22
-45.1791 -158.4485 25
-45.1791 -158.1926 27
-45.1791 -158.5226 30
-45.1791 -158.3023 32
-45.1791 -158.0963 35
-45.1791 -151.6124 37
-45.1791 -136.1382 40
-45.1791 -127.4287 42
-45.1791 -119.228 45
-45.1791 -104.9107 45
-45.1791 -97.5331 42
-45.1791 -92.3204 40
-45.1791 -88.6514 37
-45.1791 -85.015 35
-45.1791 -82.1752 32
-45.1791 -78.6945 30
-45.1791 -75.6928 27
-45.1791 -72.0811 27
-45.1791 -70.615 27
-45.1791 -64.5152 25
-45.1791 -61.585 22
-45.1791 -58.2717 20
-45.1791 -55.5369 17
-45.1791 -52.7078 15
-39.3559 -49.334 15
-39.3559 -28.7287 15
-39.3559 -13.8086 17
-39.3559 -2.1026 17
-39.3559 -0.4554 15
-39.3559 3.4825 12
-39.3559 4.7098 10
-39.3559 6.5723 7
-39.3559 6.7743 5
-39.3559 8.3912 2
-39.3559 9.3688 0
-39.3559 53.0374 -5
-39.3559 85.2725 -10
-39.3559 85.7855 -15
-39.3559 85.3363 -20
-39.3559 82.4387 -25
-39.3559 80.1067 -30
-39.3559 79.4845 -35
-39.3559 81.244 -40
-39.3559 80.0063 -45
-39.3559 75.6725 -50
-39.3559 53.4064 -55
-39.3559 39.7975 -60
-39.3559 29.722 -65
-39.3559 25.4681 -70
-39.3559 25.7808 -75
-39.3559 22.6175 -80
-39.3559 18.6752 -85
-39.3559 14.1317 -90
-39.3559 12.5569 -95
-39.3559 13.7558 -100
-39.3559 20.6447 -105
-39.3559 34.8708 -110
-39.3559 15.5426 -115
-39.3559 -12.9653 -120
-39.3559 -34.3692 -125
-39.3559 -46.8976 -130
-39.3559 -64.9889 -130
-39.3559 -68.3013 -125
-39.3559 -71.1122 -120
-39.3559 -73.2289 -115
-39.3559 -74.8278 -110
-39.3559 -77.4458 -105
-39.3559 -79.6964 -100
-39.3559 -86.8109 -95
-39.3559 -98.8815 -90
-39.3559 -117.7 -85
-39.3559 -140.0805 -80
-39.3559 -147.2184 -75
-39.3559 -154.0152 -70
-39.3559 -156.6581 -65
-39.3559 -162.9528 -60
-39.3559 -172.5226 -55
-39.3559 -181.9383 -50
-39.3559 -185.0983 -45
-39.3559 -183.3663 -40
-39.3559 -181.612 -35
-39.3559 -180.2641 -30
-39.3559 -179.2648 -25
-39.3559 -180.8536 -20
-39.3559 -177.4204 -15
-39.3559 -174.1262 -10
-39.3559 -157.9945 -5
-39.3559 -157.5267 0
-39.3559 -157.9893 2
-39.3559 -158.8792 5
-39.3559 -157.7824 7
-39.3559 -158.4055 10
-39.3559 -157.8605 12
-39.3559 -158.3799 15
-39.3559 -158.5024 17
-39.3559 -158.4552 20
-39.3559 -157.7509 22
-39.3559 -158.5079 25
-39.3559 -158.1409 27
-39.3559 -158.2652 30
-39.3559 -158.4905 32
-39.3559 -155.083 35
-39.3559 -142.9468 37
-39.3559 -130.0489 40
-39.3559 -119.7515 42
-39.3559 -108.7876 45
-39.3559 -99.4477 47
-39.3559 -84.9544 47
-39.3559 -76.3168 45
-39.3559 -72.2157 42
-39.3559 -68.9488 40
-39.3559 -64.3487 37
-39.3559 -60.5289 35
-39.3559 -59.5255 32
-39.3559 -57.1587 30
-39.3559 -56.7668 27
-39.3559 -55.9178 25
-39.3559 -54.3472 22
-39.3559 -52.4806 20
-39.3559 -51.6475 17
-33.5327 -48.4 15
-33.5327 -26.1488 15
-33.5327 0.1302 15
-33.5327 3.9309 12
-33.5327 4.8866 10
-33.5327 7.3619 7
-33.5327 7.6881 5
-33.5327 9.3338 2
-33.5327 10.2421 0
-33.5327 54.7401 -5
-33.5327 87.327 -10
-33.5327 87.8753 -15
-33.5327 87.47 -20
-33.5327 84.2437 -25
-33.5327 81.7497 -30
-33.5327 81.3339 -35
-33.5327 83.0416 -40
-33.5327 82.1697 -45
-33.5327 78.0687 -50
-33.5327 56.8279 -55
-33.5327 42.8663 -60
-33.5327 33.5115 -65
-33.5327 29.3888 -70
-33.5327 28.7225 -75
-33.5327 25.852 -80
-33.5327 22.3926 -85
-33.5327 18.0191 -90
-33.5327 18.1744 -95
-33.5327 22.5806 -100
-33.5327 32.3097 -105
-33.5327 41.5899 -110
-33.5327 23.1881 -115
-33.5327 0.1543 -120
-33.5327 -27.4452 -125
-33.5327 -44.653 -130
-33.5327 -55.5647 -135
-33.5327 -61.517 -135
-33.5327 -67.4649 -130
-33.5327 -70.2756 -125
-33.5327 -72.5813 -120
-33.5327 -74.4466 -115
-33.5327 -76.0455 -110
-33.5327 -78.1887 -105
-33.5327 -81.7698 -100
-33.5327 -88.5918 -95
-33.5327 -100.162 -90
-33.5327 -118.3726 -85
-33.5327 -139.865 -80
-33.5327 -147.8781 -75
-33.5327 -154.1827 -70
-33.5327 -156.9523 -65
-33.5327 -163.4018 -60
-33.5327 -172.9761 -55
-33.5327 -182.3521 -50
-33.5327 -185.5624 -45
-33.5327 -184.2224 -40
-33.5327 -182.7854 -35
-33.5327 -180.8052 -30
-33.5327 -179.7192 -25
-33.5327 -180.9657 -20
-33.5327 -177.1977 -15
-33.5327 -173.5149 -10
-33.5327 -158.3535 -5
-33.5327 -156.9624 0
-33.5327 -157.4725 2
-33.5327 -158.3201 5
-33.5327 -157.5739 7
-33.5327 -157.4511 10
-33.5327 -157.4621 12
-33.5327 -157.1925 15
-33.5327 -157.2074 17
-33.5327 -157.0783 20
-33.5327 -156.8558 22
-33.5327 -157.3111 25
-33.5327 -156.8472 27
-33.5327 -157.4187 30
-33.5327 -157.4704 32
-33.5327 -146.6446 35
-33.5327 -133.9826 37
-33.5327 -123.3916 40
-33.5327 -111.281 42
-33.5327 -99.7129 45
-33.5327 -91.1108 47
-33.5327 -82.9216 50
-33.5327 -71.7749 50
-33.5327 -67.1909 47
-33.5327 -62.8281 45
-33.5327 -59.7052 42
-33.5327 -57.7728 40
-33.5327 -57.0248 35
-33.5327 -56.6848 32
-33.5327 -57.1875 37
-33.5327 -54.2578 30
-33.5327 -53.4667 27
-33.5327 -53.1054 25
-33.5327 -52.1377 22
-33.5327 -50.784 20
-33.5327 -49.5743 17
-27.7095 -22.793 15
-27.7095 0.2874 15
-27.7095 4.2837 12
-27.7095 5.0634 10
-27.7095 7.6706 7
-27.7095 8.5383 5
-27.7095 10.134 2
-27.7095 10.8446 0
-27.7095 56.4428 -5
-27.7095 89.3815 -10
-27.7095 89.9651 -15
-27.7095 89.6036 -20
-27.7095 85.955 -25
-27.7095 83.402 -30
-27.7095 83.1833 -35
-27.7095 85.4406 -40
-27.7095 84.6205 -45
-27.7095 80.3471 -50
-27.7095 60.1596 -55
-27.7095 45.9852 -60
-27.7095 37.0692 -65
-27.7095 33.4916 -70
-27.7095 31.68 -75
-27.7095 29.2487 -80
-27.7095 26.1832 -85
-27.7095 22.3177 -90
-27.7095 23.9795 -95
-27.7095 33.4789 -100
-27.7095 42.5682 -105
-27.7095 48.309 -110
-27.7095 29.9072 -115
-27.7095 8.4383 -120
-27.7095 -15.2337 -125
-27.7095 -40.7634 -130
-27.7095 -54.5861 -135
-27.7095 -66.1061 -135
-27.7095 -69.4392 -130
-27.7095 -71.9336 -125
-27.7095 -73.799 -120
-27.7095 -75.6643 -115
-27.7095 -77.2632 -110
-27.7095 -78.9316 -105
-27.7095 -83.8431 -100
-27.7095 -90.3727 -95
-27.7095 -101.4425 -90
-27.7095 -117.4768 -85
-27.7095 -139.188 -80
-27.7095 -147.5533 -75
-27.7095 -154.3502 -70
-27.7095 -157.2316 -65
-27.7095 -163.8509 -60
-27.7095 -173.4296 -55
-27.7095 -182.7658 -50
-27.7095 -184.989 -45
-27.7095 -184.7017 -40
-27.7095 -183.1071 -35
-27.7095 -181.0814 -30
-27.7095 -179.923 -25
-27.7095 -180.0032 -20
-27.7095 -176.03 -15
-27.7095 -172.0101 -10
-27.7095 -157.3677 -5
-27.7095 -157.293 0
-27.7095 -157.7474 2
-27.7095 -157.7611 5
-27.7095 -157.7523 7
-27.7095 -157.4911 10
-27.7095 -157.7224 12
-27.7095 -157.5356 15
-27.7095 -157.4771 17
-27.7095 -157.2099 20
-27.7095 -157.2105 22
-27.7095 -157.1938 25
-27.7095 -157.083 27
-27.7095 -157.3442 30
-27.7095 -154.5056 32
-27.7095 -137.8037 35
-27.7095 -125.9007 37
-27.7095 -117.2237 40
-27.7095 -102.3843 42
-27.7095 -91.701 45
-27.7095 -83.7306 47
-27.7095 -71.6989 50
-27.7095 -62.7216 50
-27.7095 -61.1846 47
-27.7095 -59.2455 45
-27.7095 -57.3335 42
-27.7095 -56.3227 40
-27.7095 -55.3476 37
-27.7095 -55.0644 35
-27.7095 -54.6997 32
-27.7095 -53.0274 30
-27.7095 -52.8174 27
-27.7095 -52.2898 25
-27.7095 -51.0787 22
-27.7095 -49.7126 20
-27.7095 -48.5255 17
-27.7095 -47.6027 15
-21.8863 -18.0804 15
-21.8863 0.0896 15
-21.8863 4.1658 12
-21.8863 5.2704 10
-21.8863 8.039 7
-21.8863 9.3778 5
-21.8863 10.9341 2
-21.8863 11.507 0
-21.8863 58.1454 -5
-21.8863 91.436 -10
-21.8863 92.0549 -15
-21.8863 91.7373 -20
-21.8863 87.6805 -25
-21.8863 85.049 -30
-21.8863 85.0328 -35
-21.8863 87.8129 -40
-21.8863 87.0464 -45
-21.8863 82.6331 -50
-21.8863 63.4511 -55
-21.8863 48.5332 -60
-21.8863 40.6192 -65
-21.8863 37.5603 -70
-21.8863 34.6318 -75
-21.8863 32.6335 -80
-21.8863 29.9382 -85
-21.8863 26.7799 -90
-21.8863 29.7433 -95
-21.8863 41.4989 -100
-21.8863 49.331 -105
-21.8863 55.0374 -110
-21.8863 36.6262 -115
-21.8863 15.1574 -120
-21.8863 -6.3113 -125
-21.8863 -30.6219 -130
-21.8863 -52.3414 -135
-21.8863 -68.6027 -135
-21.8863 -71.2859 -130
-21.8863 -73.1513 -125
-21.8863 -75.0166 -120
-21.8863 -76.882 -115
-21.8863 -78.4809 -110
-21.8863 -79.6745 -105
-21.8863 -85.2454 -100
-21.8863 -91.607 -95
-21.8863 -102.0026 -90
-21.8863 -116.5811 -85
-21.8863 -138.511 -80
-21.8863 -146.7764 -75
-21.8863 -153.99 -70
-21.8863 -156.9618 -65
-21.8863 -163.6323 -60
-21.8863 -173.2083 -55
-21.8863 -182.1215 -50
-21.8863 -184.4155 -45
-21.8863 -185.1809 -40
-21.8863 -183.4288 -35
-21.8863 -181.3577 -30
-21.8863 -180.1268 -25
-21.8863 -179.0406 -20
-21.8863 -174.8624 -15
-21.8863 -170.5053 -10
-21.8863 -156.382 -5
-21.8863 -156.8446 0
-21.8863 -157.4436 2
-21.8863 -157.1918 5
-21.8863 -157.3812 7
-21.8863 -157.0374 10
-21.8863 -157.6069 12
-21.8863 -157.3455 15
-21.8863 -157.1431 17
-21.8863 -157.0844 20
-21.8863 -157.1526 22
-21.8863 -157.2484 25
-21.8863 -156.9803 27
-21.8863 -157.0417 30
-21.8863 -144.4928 32
-21.8863 -130.776 35
-21.8863 -117.409 37
-21.8863 -106.7272 40
-21.8863 -95.0411 42
-21.8863 -83.977 45
-21.8863 -76.5939 47
-21.8863 -64.2525 50
-21.8863 -62.2418 50
-21.8863 -61.1845 47
-21.8863 -58.8107 45
-21.8863 -57.1992 42
-21.8863 -56.3395 40
-21.8863 -54.6871 37
-21.8863 -54.3957 35
-21.8863 -54.0888 32
-21.8863 -52.2842 30
-21.8863 -51.9235 27
-21.8863 -51.4153 25
-21.8863 -50.3816 22
-21.8863 -49.1519 20
-21.8863 -47.8978 17
-21.8863 -46.8646 15
-16.0632 -38.6975 12
-16.0632 -25.6011 12
-16.0632 3.8041 12
-16.0632 5.8323 10
-16.0632 9.9682 7
-16.0632 10.8149 5
-16.0632 12.2925 2
-16.0632 12.8369 0
-16.0632 59.8481 -5
-16.0632 94.5169 -10
-16.0632 94.6942 -15
-16.0632 93.9619 -20
-16.0632 89.8096 -25
-16.0632 86.5451 -30
-16.0632 86.7798 -35
-16.0632 89.4242 -40
-16.0632 88.7607 -45
-16.0632 85.1364 -50
-16.0632 65.6 -55
-16.0632 52.1882 -60
-16.0632 43.9508 -65
-16.0632 40.6576 -70
-16.0632 37.4208 -75
-16.0632 35.6775 -80
-16.0632 32.6808 -85
-16.0632 31.242 -90
-16.0632 35.487 -95
-16.0632 48.3215 -100
-16.0632 54.2959 -105
-16.0632 61.5505 -110
-16.0632 43.5023 -115
-16.0632 21.8842 -120
-16.0632 0.4077 -125
-16.0632 -21.0611 -130
-16.0632 -45.6144 -135
-16.0632 -61.972 -140
-16.0632 -67.2233 -140
-16.0632 -70.577 -135
-16.0632 -72.5036 -130
-16.0632 -74.369 -125
-16.0632 -76.2343 -120
-16.0632 -77.9982 -115
-16.0632 -79.1548 -110
-16.0632 -80.4174 -105
-16.0632 -85.6722 -100
-16.0632 -92.1854 -95
-16.0632 -101.4246 -90
-16.0632 -114.8235 -85
-16.0632 -136.0951 -80
-16.0632 -145.9996 -75
-16.0632 -153.3681 -70
-16.0632 -156.6921 -65
-16.0632 -162.9802 -60
-16.0632 -172.6532 -55
-16.0632 -181.196 -50
-16.0632 -183.8421 -45
-16.0632 -185.2788 -40
-16.0632 -183.4219 -35
-16.0632 -181.3882 -30
-16.0632 -179.9979 -25
-16.0632 -177.9929 -20
-16.0632 -173.6098 -15
-16.0632 -169.0005 -10
-16.0632 -155.2228 -5
-16.0632 -156.3263 0
-16.0632 -156.32 2
-16.0632 -155.9517 5
-16.0632 -156.0482 7
-16.0632 -155.809 10
-16.0632 -156.0592 12
-16.0632 -156.082 15
-16.0632 -156.0233 17
-16.0632 -155.948 20
-16.0632 -155.6192 22
-16.0632 -156.1309 25
-16.0632 -156.0708 27
-16.0632 -148.3844 30
-16.0632 -133.2918 32
-16.0632 -121.0281 35
-16.0632 -108.516 37
-16.0632 -97.0504 40
-16.0632 -86.8888 42
-16.0632 -76.8086 45
-16.0632 -68.0331 47
-16.0632 -61.5815 47
-16.0632 -58.6852 45
-16.0632 -57.2556 42
-16.0632 -56.5193 40
-16.0632 -54.5136 37
-16.0632 -53.9285 32
-16.0632 -54.1905 35
-16.0632 -52.264 30
-16.0632 -51.9163 27
-16.0632 -51.3572 25
-16.0632 -50.1835 22
-16.0632 -49.123 20
-16.0632 -47.9104 17
-16.0632 -46.6983 15
-10.24 -39.3064 12
-10.24 -18.9915 12
-10.24 3.2476 12
-10.24 8.0387 10
-10.24 11.7757 7
-10.24 12.9791 5
-10.24 15.4943 2
-10.24 16.4682 0
-10.24 61.5507 -5
-10.24 97.6978 -10
-10.24 97.3739 -15
-10.24 96.1879 -20
-10.24 91.9388 -25
-10.24 88.0413 -30
-10.24 88.4745 -35
-10.24 91.0354 -40
-10.24 90.4749 -45
-10.24 87.6396 -50
-10.24 67.7489 -55
-10.24 55.8432 -60
-10.24 47.2824 -65
-10.24 43.755 -70
-10.24 40.2097 -75
-10.24 38.7216 -80
-10.24 35.4233 -85
-10.24 34.6203 -90
-10.24 39.4377 -95
-10.24 51.675 -100
-10.24 58.5642 -105
-10.24 64.4059 -110
-10.24 47.3333 -115
-10.24 27.4151 -120
-10.24 7.2608 -125
-10.24 -14.3421 -130
-10.24 -35.8108 -135
-10.24 -59.5368 -140
-10.24 -69.7405 -140
-10.24 -71.8559 -135
-10.24 -73.7213 -130
-10.24 -75.4049 -125
-10.24 -76.7542 -120
-10.24 -78.1036 -115
-10.24 -79.2602 -110
-10.24 -81.1603 -105
-10.24 -86.0991 -100
-10.24 -92.7637 -95
-10.24 -100.8466 -90
-10.24 -112.8676 -85
-10.24 -133.2304 -80
-10.24 -145.2228 -75
-10.24 -152.7463 -70
-10.24 -156.4223 -65
-10.24 -162.328 -60
-10.24 -172.0981 -55
-10.24 -180.2705 -50
-10.24 -183.2687 -45
-10.24 -183.9748 -40
-10.24 -182.368 -35
-10.24 -180.7374 -30
-10.24 -178.8681 -25
-10.24 -176.6752 -20
-10.24 -172.0779 -15
-10.24 -167.4957 -10
-10.24 -153.5167 -5
-10.24 -156.9687 0
-10.24 -157.3673 2
-10.24 -157.4051 5
-10.24 -156.7624 7
-10.24 -156.8345 10
-10.24 -157.0745 12
-10.24 -157.1156 15
-10.24 -157.1375 17
-10.24 -157.0764 20
-10.24 -156.7112 22
-10.24 -156.9488 25
-10.24 -155.51 27
-10.24 -137.9526 30
-10.24 -124.5959 32
-10.24 -112.5148 35
-10.24 -99.7409 37
-10.24 -89.124 40
-10.24 -77.3526 42
-10.24 -68.428 45
-10.24 -58.7337 45
-10.24 -57.311 42
-10.24 -56.5444 40
-10.24 -54.7804 37
-10.24 -54.0908 32
-10.24 -54.3273 35
-10.24 -52.6044 30
-10.24 -52.2198 27
-10.24 -51.661 25
-10.24 -50.3036 22
-10.24 -49.1567 20
-10.24 -47.6374 17
-10.24 -46.5174 15
-4.4168 -39.8698 12
-4.4168 -12.8295 12
-4.4168 4.6987 12
-4.4168 12.996 10
-4.4168 15.1112 7
-4.4168 18.0371 5
-4.4168 22.5259 2
-4.4168 24.6355 0
-4.4168 63.2534 -5
-4.4168 100.8787 -10
-4.4168 100.0537 -15
-4.4168 98.4138 -20
-4.4168 94.068 -25
-4.4168 89.7173 -30
-4.4168 90.1693 -35
-4.4168 92.6467 -40
-4.4168 92.1781 -45
-4.4168 89.7592 -50
-4.4168 70.9032 -55
-4.4168 58.8083 -60
-4.4168 50.5092 -65
-4.4168 46.7064 -70
-4.4168 42.9987 -75
-4.4168 40.7289 -80
-4.4168 37.5097 -85
-4.4168 36.5685 -90
-4.4168 42.1671 -95
-4.4168 54.5542 -100
-4.4168 62.3578 -105
-4.4168 67.2614 -110
-4.4168 50.1887 -115
-4.4168 30.2705 -120
-4.4168 10.3523 -125
-4.4168 -9.5659 -130
-4.4168 -29.484 -135
-4.4168 -50.5605 -140
-4.4168 -71.2083 -140
-4.4168 -72.8115 -135
-4.4168 -74.1609 -130
-4.4168 -75.5103 -125
-4.4168 -76.8597 -120
-4.4168 -78.209 -115
-4.4168 -79.3656 -110
-4.4168 -81.5814 -105
-4.4168 -86.1603 -100
-4.4168 -92.9339 -95
-4.4168 -100.1991 -90
-4.4168 -111.0469 -85
-4.4168 -130.6776 -80
-4.4168 -144.3594 -75
-4.4168 -152.0098 -70
-4.4168 -155.7631 -65
-4.4168 -161.6122 -60
-4.4168 -171.2719 -55
-4.4168 -179.3449 -50
-4.4168 -182.6953 -45
-4.4168 -182.6708 -40
-4.4168 -181.3142 -35
-4.4168 -180.0866 -30
-4.4168 -177.7383 -25
-4.4168 -175.3575 -20
-4.4168 -170.546 -15
-4.4168 -165.9909 -10
-4.4168 -151.8105 -5
-4.4168 -157.3504 0
-4.4168 -158.0439 2
-4.4168 -157.9863 5
-4.4168 -157.6336 7
-4.4168 -157.697 10
-4.4168 -157.6144 12
-4.4168 -157.7536 15
-4.4168 -157.6213 17
-4.4168 -157.7291 20
-4.4168 -157.4544 22
-4.4168 -157.5216 25
-4.4168 -142.4504 27
-4.4168 -127.8921 30
-4.4168 -115.3059 32
-4.4168 -105.0663 35
-4.4168 -91.0105 37
-4.4168 -81.8581 40
-4.4168 -72.3531 42
-4.4168 -62.0083 45
-4.4168 -58.9597 45
-4.4168 -57.415 42
-4.4168 -56.5693 40
-4.4168 -54.1043 32
-4.4168 -54.4199 35
-4.4168 -54.7966 37
-4.4168 -52.2642 27
-4.4168 -52.4377 30
-4.4168 -51.6003 25
-4.4168 -50.2481 22
-4.4168 -48.7329 20
-4.4168 -47.6426 17
-4.4168 -46.3089 15
1.4064 -7.128 12
1.4064 7.5983 12
1.4064 18.705 10
1.4064 33.7776 7
1.4064 36.3788 5
1.4064 37.5387 2
1.4064 39.7877 0
1.4064 64.956 -5
1.4064 104.0595 -10
1.4064 102.7334 -15
1.4064 100.6398 -20
1.4064 96.1971 -25
1.4064 91.5725 -30
1.4064 91.864 -35
1.4064 94.258 -40
1.4064 93.8685 -45
1.4064 91.5587 -50
1.4064 74.8995 -55
1.4064 61.1567 -60
1.4064 53.6449 -65
1.4064 49.5384 -70
1.4064 45.7876 -75
1.4064 41.9332 -80
1.4064 39.0417 -85
1.4064 38.5166 -90
1.4064 44.6169 -95
1.4064 55.52 -100
1.4064 63.9037 -105
1.4064 70.1168 -110
1.4064 53.0441 -115
1.4064 33.1259 -120
1.4064 13.2077 -125
1.4064 -6.7105 -130
1.4064 -26.6286 -135
1.4064 -46.6745 -140
1.4064 -71.3013 -140
1.4064 -72.5737 -135
1.4064 -73.8462 -130
1.4064 -75.1186 -125
1.4064 -76.3911 -120
1.4064 -77.6636 -115
1.4064 -78.7543 -110
1.4064 -81.0274 -105
1.4064 -85.1135 -100
1.4064 -91.8676 -95
1.4064 -99.3409 -90
1.4064 -109.636 -85
1.4064 -129.0697 -80
1.4064 -143.2338 -75
1.4064 -150.9263 -70
1.4064 -155.0074 -65
1.4064 -160.7035 -60
1.4064 -169.6246 -55
1.4064 -178.325 -50
1.4064 -182.0211 -45
1.4064 -181.396 -40
1.4064 -180.2867 -35
1.4064 -179.4064 -30
1.4064 -176.6658 -25
1.4064 -174.1394 -20
1.4064 -169.0939 -15
1.4064 -164.4856 -10
1.4064 -150.2038 -5
1.4064 -158.0533 0
1.4064 -158.6324 2
1.4064 -158.427 5
1.4064 -158.1818 7
1.4064 -158.3716 10
1.4064 -158.1371 12
1.4064 -158.3861 15
1.4064 -158.3753 17
1.4064 -158.3842 20
1.4064 -158.1959 22
1.4064 -149.64 25
1.4064 -132.2222 27
1.4064 -118.6628 30
1.4064 -106.1608 32
1.4064 -93.7655 35
1.4064 -84.0245 37
1.4064 -75.601 40
1.4064 -69.4512 42
1.4064 -57.0329 42
1.4064 -56.4747 40
1.4064 -54.8362 37
1.4064 -53.9925 35
1.4064 -53.0734 32
1.4064 -51.6995 30
1.4064 -51.261 27
1.4064 -50.7182 25
1.4064 -49.5687 22
1.4064 -47.8019 20
1.4064 -47.1833 17
1.4064 -45.7356 15
1.4064 -41.3755 12
7.2296 -26.0603 10
7.2296 -1.6134 12
7.2296 13.1245 12
7.2296 36.9557 10
7.2296 43.9104 7
7.2296 46.9163 5
7.2296 49.3232 2
7.2296 49.9887 0
7.2296 66.6587 -5
7.2296 107.2404 -10
7.2296 105.4132 -15
7.2296 102.8658 -20
7.2296 98.3263 -25
7.2296 93.4278 -30
7.2296 93.5588 -35
7.2296 95.8692 -40
7.2296 95.5588 -45
7.2296 93.3582 -50
7.2296 78.8958 -55
7.2296 63.5051 -60
7.2296 56.7806 -65
7.2296 52.3703 -70
7.2296 48.5766 -75
7.2296 43.1375 -80
7.2296 40.5737 -85
7.2296 39.8022 -90
7.2296 44.1684 -95
7.2296 56.4859 -100
7.2296 65.4496 -105
7.2296 72.9722 -110
7.2296 55.4039 -115
7.2296 34.8855 -120
7.2296 14.367 -125
7.2296 -6.1514 -130
7.2296 -26.6698 -135
7.2296 -51.425 -140
7.2296 -67.5572 -140
7.2296 -70.8629 -135
7.2296 -72.5232 -130
7.2296 -74.1834 -125
7.2296 -75.7575 -120
7.2296 -77.03 -115
7.2296 -78.1207 -110
7.2296 -80.4733 -105
7.2296 -84.0668 -100
7.2296 -90.8013 -95
7.2296 -98.4827 -90
7.2296 -108.2251 -85
7.2296 -127.4618 -80
7.2296 -142.1082 -75
7.2296 -149.8428 -70
7.2296 -154.2516 -65
7.2296 -159.7949 -60
7.2296 -167.9772 -55
7.2296 -176.1903 -50
7.2296 -180.1575 -45
7.2296 -180.4649 -40
7.2296 -179.5701 -35
7.2296 -178.3788 -30
7.2296 -176.2699 -25
7.2296 -174.097 -20
7.2296 -168.5838 -15
7.2296 -162.9739 -10
7.2296 -149.7691 -5
7.2296 -157.57 0
7.2296 -157.7301 2
7.2296 -157.7999 5
7.2296 -157.6871 7
7.2296 -157.5816 10
7.2296 -157.6096 12
7.2296 -157.6747 15
7.2296 -157.6979 17
7.2296 -157.6147 20
7.2296 -155.5129 22
7.2296 -138.1127 25
7.2296 -120.2563 27
7.2296 -110.2653 30
7.2296 -97.7994 32
7.2296 -87.2693 35
7.2296 -81.4984 37
7.2296 -73.8502 40
7.2296 -67.0945 42
7.2296 -56.7653 42
7.2296 -55.5382 40
7.2296 -54.8401 37
7.2296 -53.6141 35
7.2296 -52.0595 32
7.2296 -50.374 30
7.2296 -49.4376 25
7.2296 -49.8497 27
7.2296 -48.1685 22
7.2296 -46.718 20
7.2296 -46.2789 17
7.2296 -44.78 15
7.2296 -42.6807 12
7.2296 -42.2861 10
13.0528 -30.9415 7
13.0528 -14.8519 10
13.0528 3.4104 12
13.0528 42.415 12
13.0528 50.4104 10
13.0528 53.243 7
13.0528 57.3143 5
13.0528 57.8648 2
13.0528 58.461 0
13.0528 68.9652 -5
13.0528 110.1089 -10
13.0528 107.5664 -15
13.0528 104.8186 -20
13.0528 100.1171 -25
13.0528 95.5476 -30
13.0528 95.8319 -35
13.0528 98.0172 -40
13.0528 98.0421 -45
13.0528 95.7882 -50
13.0528 81.3717 -55
13.0528 65.8455 -60
13.0528 58.5856 -65
13.0528 53.5765 -70
13.0528 49.1332 -75
13.0528 43.8659 -80
13.0528 40.3432 -85
13.0528 39.1186 -90
13.0528 43.72 -95
13.0528 54.9836 -100
13.0528 64.1364 -105
13.0528 72.4774 -110
13.0528 54.8901 -115
13.0528 34.3717 -120
13.0528 13.8532 -125
13.0528 -8.5304 -130
13.0528 -33.7864 -135
13.0528 -66.2833 -135
13.0528 -70.3525 -130
13.0528 -72.0128 -125
13.0528 -73.6731 -120
13.0528 -75.3333 -115
13.0528 -76.7564 -110
13.0528 -79.9192 -105
13.0528 -82.9569 -100
13.0528 -89.735 -95
13.0528 -97.4408 -90
13.0528 -106.8142 -85
13.0528 -125.8539 -80
13.0528 -140.9827 -75
13.0528 -149.2362 -70
13.0528 -153.4959 -65
13.0528 -158.846 -60
13.0528 -166.3299 -55
13.0528 -174.0556 -50
13.0528 -178.2939 -45
13.0528 -179.5338 -40
13.0528 -178.8535 -35
13.0528 -177.3511 -30
13.0528 -175.8741 -25
13.0528 -174.0546 -20
13.0528 -168.0738 -15
13.0528 -161.4622 -10
13.0528 -149.3344 -5
13.0528 -158.0607 0
13.0528 -158.014 2
13.0528 -158.8235 5
13.0528 -158.5462 7
13.0528 -158.3759 10
13.0528 -158.2995 12
13.0528 -158.5023 15
13.0528 -158.4392 17
13.0528 -157.9245 20
13.0528 -146.1376 22
13.0528 -126.057 25
13.0528 -110.7809 27
13.0528 -101.5503 30
13.0528 -92.7442 32
13.0528 -85.2485 35
13.0528 -79.3184 37
13.0528 -72.6809 40
13.0528 -65.0749 42
13.0528 -55.3775 42
13.0528 -53.804 40
13.0528 -51.1179 37
13.0528 -50.5327 35
13.0528 -49.8501 32
13.0528 -48.2255 30
13.0528 -47.2555 25
13.0528 -47.547 27
13.0528 -46.3705 22
13.0528 -45.6132 20
13.0528 -44.8502 17
13.0528 -43.7774 15
13.0528 -42.2789 12
13.0528 -41.6659 10
13.0528 -40.3586 7
13.0528 -36.1847 5
13.0528 -35.2056 5
18.876 -27.1347 5
18.876 -22.132 7
18.876 -3.8255 10
18.876 8.3902 12
18.876 24.9798 15
18.876 38.0315 15
18.876 53.5261 12
18.876 58.2395 10
18.876 61.5819 7
18.876 64.599 5
18.876 65.5165 2
18.876 65.9927 0
18.876 71.2751 -5
18.876 112.9756 -10
18.876 109.7165 -15
18.876 106.7698 -20
18.876 101.9059 -25
18.876 97.6689 -30
18.876 98.1084 -35
18.876 100.1682 -40
18.876 100.5298 -45
18.876 98.2218 -50
18.876 83.8391 -55
18.876 68.1859 -60
18.876 60.383 -65
18.876 54.7734 -70
18.876 49.6772 -75
18.876 44.5917 -80
18.876 40.1027 -85
18.876 38.435 -90
18.876 43.2716 -95
18.876 53.4674 -100
18.876 62.807 -105
18.876 71.9635 -110
18.876 54.3763 -115
18.876 33.1733 -120
18.876 9.2885 -125
18.876 -16.1476 -130
18.876 -65.0094 -130
18.876 -69.8422 -125
18.876 -71.5025 -120
18.876 -73.1627 -115
18.876 -74.5858 -110
18.876 -77.688 -105
18.876 -81.0322 -100
18.876 -87.4474 -95
18.876 -95.6981 -90
18.876 -105.7093 -85
18.876 -124.246 -80
18.876 -139.8571 -75
18.876 -148.8269 -70
18.876 -152.7401 -65
18.876 -157.4948 -60
18.876 -164.0643 -55
18.876 -171.716 -50
18.876 -176.7704 -45
18.876 -178.6028 -40
18.876 -178.1369 -35
18.876 -177.2625 -30
18.876 -175.8808 -25
18.876 -172.9244 -20
18.876 -167.6769 -15
18.876 -160.6093 -10
18.876 -149.3396 -5
18.876 -158.6094 0
18.876 -158.686 2
18.876 -158.2061 5
18.876 -158.7663 7
18.876 -158.4682 10
18.876 -159.5998 12
18.876 -158.671 15
18.876 -158.6725 17
18.876 -147.5056 20
18.876 -134.7672 22
18.876 -117.7854 25
18.876 -103.6493 27
18.876 -96.4545 30
18.876 -90.9604 32
18.876 -86.2158 35
18.876 -79.8158 37
18.876 -72.1633 40
18.876 -56.3563 42
18.876 -54.6269 42
18.876 -50.5684 40
18.876 -47.6507 37
18.876 -47.2938 35
18.876 -46.9117 32
18.876 -45.6372 30
18.876 -45.5016 27
18.876 -45.2179 25
18.876 -44.3031 22
18.876 -44.0889 20
18.876 -43.5088 17
18.876 -42.6604 15
18.876 -40.7265 10
18.876 -40.5517 12
18.876 -39.7901 7
18.876 -38.6938 5
24.6992 -22.2552 5
24.6992 -14.7322 7
24.6992 2.4432 10
24.6992 13.7878 12
24.6992 25.3736 15
24.6992 56.9747 15
24.6992 61.9179 12
24.6992 65.5669 10
24.6992 69.1584 7
24.6992 71.3342 5
24.6992 72.5461 2
24.6992 73.337 0
24.6992 73.585 -5
24.6992 115.8423 -10
24.6992 111.9271 -15
24.6992 108.721 -20
24.6992 103.6947 -25
24.6992 99.7901 -30
24.6992 100.3848 -35
24.6992 102.3192 -40
24.6992 103.0257 -45
24.6992 100.6467 -50
24.6992 86.3296 -55
24.6992 70.5347 -60
24.6992 62.1298 -65
24.6992 55.5923 -70
24.6992 50.181 -75
24.6992 45.2119 -80
24.6992 39.7583 -85
24.6992 37.4818 -90
24.6992 40.5092 -95
24.6992 51.9512 -100
24.6992 60.3892 -105
24.6992 71.4497 -110
24.6992 50.9922 -115
24.6992 27.1073 -120
24.6992 1.491 -125
24.6992 -63.7355 -125
24.6992 -69.3318 -120
24.6992 -70.9921 -115
24.6992 -72.4152 -110
24.6992 -75.2016 -105
24.6992 -79.1074 -100
24.6992 -85.0603 -95
24.6992 -93.9555 -90
24.6992 -104.8975 -85
24.6992 -122.707 -80
24.6992 -138.9578 -75
24.6992 -148.4121 -70
24.6992 -151.9844 -65
24.6992 -156.1437 -60
24.6992 -161.7983 -55
24.6992 -169.3579 -50
24.6992 -173.7674 -45
24.6992 -177.6717 -40
24.6992 -177.4203 -35
24.6992 -177.2233 -30
24.6992 -175.9072 -25
24.6992 -171.7432 -20
24.6992 -167.2852 -15
24.6992 -159.7787 -10
24.6992 -149.3645 -5
24.6992 -159.373 0
24.6992 -159.7429 2
24.6992 -159.0642 5
24.6992 -159.1474 7
24.6992 -159.0686 10
24.6992 -159.1428 12
24.6992 -159.1809 15
24.6992 -156.5374 17
24.6992 -138.5355 20
24.6992 -123.379 22
24.6992 -109.6577 25
24.6992 -101.4638 27
24.6992 -96.1514 30
24.6992 -91.0025 32
24.6992 -85.9415 35
24.6992 -76.7343 37
24.6992 -68.3822 40
24.6992 -49.1842 40
24.6992 -44.1143 37
24.6992 -43.5519 35
24.6992 -43.2214 32
24.6992 -42.8204 30
24.6992 -42.6443 27
24.6992 -42.3831 25
24.6992 -41.9516 22
24.6992 -41.4932 20
24.6992 -41.0644 17
24.6992 -40.1483 15
24.6992 -38.8244 12
24.6992 -38.3199 10
24.6992 -37.7382 7
24.6992 -36.982 5
30.5223 -14.6119 5
30.5223 -7.8329 7
30.5223 8.712 10
30.5223 21.7589 12
30.5223 30.8052 15
30.5223 65.9448 15
30.5223 68.7048 12
30.5223 71.6925 10
30.5223 76.0837 7
30.5223 77.6627 5
30.5223 79.2267 2
30.5223 80.4752 0
30.5223 75.8949 -5
30.5223 118.709 -10
30.5223 114.4609 -15
30.5223 110.6723 -20
30.5223 105.4836 -25
30.5223 101.9114 -30
30.5223 102.6612 -35
30.5223 104.4703 -40
30.5223 105.7387 -45
30.5223 102.9949 -50
30.5223 88.9887 -55
30.5223 72.9853 -60
30.5223 63.4538 -65
30.5223 56.4022 -70
30.5223 49.7277 -75
30.5223 44.2001 -80
30.5223 37.4408 -85
30.5223 36.5115 -90
30.5223 35.9118 -95
30.5223 48.1763 -100
30.5223 57.7084 -105
30.5223 65.3989 -110
30.5223 44.9262 -115
30.5223 19.1297 -120
30.5223 -19.7809 -125
30.5223 -46.2228 -125
30.5223 -62.4615 -120
30.5223 -68.8215 -115
30.5223 -70.2446 -110
30.5223 -72.7152 -105
30.5223 -76.6682 -100
30.5223 -82.6732 -95
30.5223 -91.8753 -90
30.5223 -104.0857 -85
30.5223 -122.1992 -80
30.5223 -139.1629 -75
30.5223 -147.9701 -70
30.5223 -151.1691 -65
30.5223 -154.7925 -60
30.5223 -159.5323 -55
30.5223 -166.577 -50
30.5223 -171.3899 -45
30.5223 -174.4302 -40
30.5223 -175.4744 -35
30.5223 -176.3416 -30
30.5223 -175.4104 -25
30.5223 -170.9094 -20
30.5223 -166.7055 -15
30.5223 -160.139 -10
30.5223 -149.788 -5
30.5223 -157.0861 0
30.5223 -157.215 2
30.5223 -157.0753 5
30.5223 -157.5289 7
30.5223 -157.0439 10
30.5223 -156.9801 12
30.5223 -157.2356 15
30.5223 -142.589 17
30.5223 -129.1379 20
30.5223 -114.7281 22
30.5223 -102.8948 25
30.5223 -94.6641 27
30.5223 -92.0886 30
30.5223 -85.8731 32
30.5223 -78.5014 35
30.5223 -51.6582 37
30.5223 -49.1975 40
30.5223 -43.272 40
30.5223 -39.2967 25
30.5223 -39.5886 27
30.5223 -38.3883 20
30.5223 -38.698 22
30.5223 -37.9031 17
30.5223 -40.1517 32
30.5223 -39.7311 30
30.5223 -40.4155 35
30.5223 -40.691 37
30.5223 -37.3289 15
30.5223 -35.8774 12
30.5223 -35.3212 10
30.5223 -34.7068 7
30.5223 -33.6174 5
36.3456 -7.8007 5
36.3456 -0.9335 7
36.3456 15.5682 10
36.3456 31.9735 12
36.3456 42.4238 15
36.3456 71.5556 15
36.3456 74.9928 12
36.3456 77.8181 10
36.3456 82.1679 7
36.3456 83.6323 5
36.3456 85.0357 2
36.3456 86.7164 0
36.3456 78.2048 -5
36.3456 121.5757 -10
36.3456 116.9947 -15
36.3456 112.6235 -20
36.3456 107.2724 -25
36.3456 104.0327 -30
36.3456 104.9377 -35
36.3456 106.6213 -40
36.3456 108.4517 -45
36.3456 105.3431 -50
36.3456 91.6477 -55
36.3456 75.4358 -60
36.3456 64.7778 -65
36.3456 55.9758 -70
36.3456 49.2744 -75
36.3456 43.1883 -80
36.3456 35.1232 -85
36.3456 29.9263 -90
36.3456 31.3145 -95
36.3456 41.3452 -100
36.3456 48.7748 -105
36.3456 59.3329 -110
36.3456 36.7683 -115
36.3456 0.8268 -120
36.3456 -49.4781 -120
36.3456 -61.1876 -115
36.3456 -68.074 -110
36.3456 -70.2288 -105
36.3456 -71.3823 -100
36.3456 -78.8803 -95
36.3456 -89.0106 -90
36.3456 -103.2739 -85
36.3456 -121.6914 -80
36.3456 -139.368 -75
36.3456 -147.5282 -70
36.3456 -150.0876 -65
36.3456 -153.5316 -60
36.3456 -157.422 -55
36.3456 -163.7096 -50
36.3456 -169.186 -45
36.3456 -170.7164 -40
36.3456 -173.2771 -35
36.3456 -175.2877 -30
36.3456 -174.8067 -25
36.3456 -170.1467 -20
36.3456 -166.0874 -15
36.3456 -160.7429 -10
36.3456 -150.293 -5
36.3456 -154.8353 0
36.3456 -154.7287 2
36.3456 -154.7613 5
36.3456 -154.8699 7
36.3456 -154.5363 10
36.3456 -154.5999 12
36.3456 -151.7089 15
36.3456 -130.4592 17
36.3456 -118.9562 20
36.3456 -109.3999 22
36.3456 -103.0199 25
36.3456 -85.9109 27
36.3456 -81.7568 30
36.3456 -68.3594 32
36.3456 -64.6344 35
36.3456 -58.928 37
36.3456 -50.5842 40
36.3456 -46.8442 42
36.3456 -40.7804 42
36.3456 -38.857 40
36.3456 -37.6328 37
36.3456 -37.2873 35
36.3456 -37.0872 32
36.3456 -36.5765 30
36.3456 -36.4064 27
36.3456 -36.1512 25
36.3456 -35.6945 22
36.3456 -35.1917 20
36.3456 -33.9615 17
36.3456 -33.6393 15
36.3456 -32.2149 12
36.3456 -31.4347 10
36.3456 -30.618 7
36.3456 -29.6848 5
42.1687 -1.5933 5
42.1687 6.212 7
42.1687 23.024 10
42.1687 42.0777 12
42.1687 51.8607 15
